ply
format ascii 1.0
element vertex 618
property float x
property float y
property float z
property float nx
property float ny
property float nz
property uchar red
property uchar green
property uchar blue
end_header
0.114629045 0.859709 -0.03364992 -0.19043101 -0.07104249 0.91778743 123 123 123
0.11949562 0.8594444 -0.03463459 0.29661798 -0.1366688 0.93075436 138 138 138
0.124315634 0.85821795 -0.038666725 0.21110094 -0.08446972 0.9439281 136 136 136
0.1292193 0.85864687 -0.03745413 -0.49128962 0.037499383 0.8507615 98 98 98
0.13419323 0.8606794 -0.031161308 -0.64535576 0.17188321 0.72835726 104 104 104
0.13912365 0.8619087 -0.027412891 -0.20673463 0.70798874 0.6482607 140 140 140
0.14399007 0.8617008 -0.02821827 -0.26794606 0.62242335 0.69267756 137 137 137
0.14890796 0.86281013 -0.024849892 -0.42960384 0.28461707 0.79967844 127 127 127
0.15382151 0.8639381 -0.021421432 -0.48272017 -0.005471456 0.8711976 112 112 112
0.15871306 0.86456823 -0.019571781 -0.4427797 -0.008758002 0.8866702 114 114 114
0.16360177 0.8652017 -0.017710686 -0.3949402 -0.01960653 0.90400064 116 116 116
0.16848746 0.8658304 -0.015864372 -0.35535043 -0.02510609 0.91195697 117 117 117
0.17337039 0.8664632 -0.014005184 -0.31540996 -0.028392637 0.9274296 119 119 119
0.17825033 0.86709356 -0.012154102 -0.27582017 -0.033892136 0.93538594 121 121 121
0.18312667 0.8676915 -0.010405064 -0.21985894 -0.035040952 0.95766586 127 127 127
0.188 0.868278 -0.008692265 -0.15619062 -0.021178663 0.9751666 133 133 133
0.19285768 0.86816525 -0.009195328 0.078031145 -0.011684799 0.9450752 147 147 147
0.19771235 0.8678458 -0.010353565 0.29686952 0.0076217 0.92099667 153 153 153
0.20256305 0.86715317 -0.012694836 0.44375685 0.06577412 0.86428523 157 157 157
0.20741433 0.86625695 -0.015681267 0.5742088 0.12710018 0.7910378 156 156 156
0.21226373 0.864774 -0.020526886 0.6241072 0.31760225 0.6589633 159 159 159
0.21712384 0.8638618 -0.023564339 -0.013373209 0.5246935 0.6031798 161 161 161
0.22200675 0.86650515 -0.015331745 -0.52620226 0.6930823 0.35655475 65 65 65
0.22686791 0.8659301 -0.017300606 0.56425124 0.5161554 0.52963907 93 93 93
0.23172857 0.8619807 -0.029964924 0.91952705 0.25811848 0.25348374 87 87 87
0.23660766 0.8572619 -0.045068264 0.85122955 0.48459375 0.10814815 144 144 144
0.24160023 0.8263886 -0.14307356 0.90816426 0.14267199 0.36166206 113 113 113
0.24658391 0.8207526 -0.16108656 0.9408333 0.21241723 0.20865586 113 113 113
0.2515945 0.81484985 -0.17994595 0.7354961 0.5697324 0.31763846 125 125 125
0.25657347 0.8146136 -0.1808443 -0.25846455 0.7418537 0.54249305 122 122 122
0.26153654 0.8157337 -0.17744303 -0.46325833 0.69635826 0.53270596 115 115 115
0.26649627 0.81673265 -0.1744256 -0.26556733 0.78615206 0.55433446 136 136 136
0.27146578 0.8168862 -0.174088 -0.12994796 0.7611685 0.6044681 151 151 151
0.2764334 0.8170924 -0.17358351 0.021789163 0.68343896 0.6693795 163 163 163
0.28140065 0.8172722 -0.17316294 0.08341531 0.76369303 0.63469124 169 169 169
0.28637698 0.8170235 -0.17410088 0.21753713 0.69754696 0.656093 170 170 170
0.29136544 0.81634355 -0.17640543 0.52583927 0.60043913 0.5393528 163 163 163
0.29638207 0.814754 -0.18159485 0.36969104 0.52731216 0.7400366 144 144 144
0.30136076 0.81465745 -0.18204975 0.4023081 0.4638683 0.7735627 137 137 137
0.30639628 0.8128114 -0.18805265 0.8310844 0.34133694 0.37223992 92 92 92
0.3114422 0.81089616 -0.19427443 0.79185736 0.20833598 0.56054455 81 81 81
0.31652808 0.80812025 -0.20322514 0.6564152 -0.1441898 0.72794557 100 100 100
0.32156008 0.80704165 -0.20679522 0.7385204 -0.18620825 0.63827574 116 116 116
0.32673204 0.8026724 -0.22079897 0.75033516 -0.29782033 0.5641913 90 90 90
0.33183 0.80045414 -0.227983 0.7355892 -0.27605736 0.5830243 98 98 98
0.33695775 0.79779553 -0.23656368 0.8854 -0.16173038 0.41142684 90 90 90
0.34241486 0.7884829 -0.2662449 0.811068 -0.19941917 0.50783336 78 78 78
0.07192017 0.8032155 -0.19481707 -0.92020303 -0.24871485 0.25119984 29 29 29
0.077561736 0.81254315 -0.16548967 -0.8361427 -0.35576093 0.38518965 32 32 32
0.08280291 0.8165159 -0.15308428 -0.805849 -0.2416819 0.5220568 49 49 49
0.08794528 0.8192377 -0.14463234 -0.7707794 -0.20244087 0.59889334 61 61 61
0.09302434 0.8211417 -0.13876343 -0.7458716 -0.19370183 0.62789506 63 63 63
0.098094404 0.8230381 -0.13291979 -0.72102773 -0.17743838 0.6546844 64 64 64
0.1047426 0.8521819 -0.04095936 -0.80142456 0.063717596 0.587433 77 77 77
0.10970845 0.85359406 -0.03664255 -0.56483305 0.0028724645 0.7907299 98 98 98
0.114646174 0.85460114 -0.03360653 -0.14252761 -0.089415364 0.9373303 130 130 130
0.11949997 0.8540704 -0.03543043 0.30438906 -0.12918207 0.92818755 137 137 137
0.12433327 0.8530793 -0.038710117 0.1871812 -0.079045475 0.93526286 137 137 137
0.12923962 0.85354614 -0.03738165 -0.53158075 0.03857295 0.82777256 96 96 96
0.13421541 0.8556044 -0.031022549 -0.7434233 0.08337105 0.65259826 66 66 66
0.13916612 0.85729074 -0.025838375 -0.5694026 0.4100737 0.6465002 92 92 92
0.1440739 0.8581054 -0.023409843 0.058602367 0.78726447 0.6043563 113 113 113
0.14894593 0.85808444 -0.02362299 -0.30083355 0.36102837 0.86119944 119 119 119
0.15384722 0.8588731 -0.021275997 -0.3392391 0.1837301 0.8988239 122 122 122
0.15873471 0.85936093 -0.019880295 -0.34719992 0.11162247 0.9040572 125 125 125
0.16362 0.85984945 -0.018482208 -0.3629957 0.039552458 0.909645 122 122 122
0.16850497 0.8604064 -0.016868114 -0.35519162 -0.00031999324 0.91283613 118 118 118
0.17338954 0.8610399 -0.015011787 -0.30735216 -0.011168522 0.93016666 121 121 121
0.17827117 0.8616719 -0.013159275 -0.26741168 -0.014455068 0.94563925 123 123 123
0.18314983 0.8623018 -0.011314392 -0.22782189 -0.019954627 0.9535956 126 126 126
0.18802477 0.86289287 -0.009592056 -0.1640896 -0.013616681 0.9733087 133 133 133
0.19288558 0.8628621 -0.009835243 0.031307615 -0.0017216621 0.95250595 146 146 146
0.19774474 0.86273146 -0.010394573 0.24329908 0.031785782 0.9491184 154 154 154
0.20259573 0.8619852 -0.012899399 0.38193676 0.095287204 0.8830327 159 159 159
0.20745271 0.8614752 -0.014658451 0.38456917 0.3161125 0.7442356 167 167 167
0.21230698 0.8604653 -0.017998219 0.44826627 0.4570036 0.74888706 169 169 169
0.21717644 0.86090016 -0.01676941 -0.65922266 0.40340653 0.57081175 91 91 91
0.22205165 0.86282325 -0.010834694 -0.12051621 0.6602156 0.65011954 90 90 90
0.22690883 0.8616543 -0.014676571 0.7294308 0.26573354 0.56292623 90 90 90
0.23176864 0.8576143 -0.027598381 0.89764744 0.284345 0.2877038 95 95 95
0.23664479 0.8545673 -0.03738022 0.878914 0.38400784 0.21012937 146 146 146
0.24164099 0.82155347 -0.14192867 0.91536194 0.13068402 0.3484874 113 113 113
0.24662276 0.816278 -0.15876007 0.9422051 0.18143435 0.24226661 112 112 112
0.2516255 0.8112786 -0.17472029 0.75116616 0.5696572 0.31692952 127 127 127
0.25660452 0.8107765 -0.1764574 -0.39587036 0.8031316 0.44902 115 115 115
0.26156065 0.8122864 -0.17183161 -0.52419513 0.7612437 0.3936821 112 112 112
0.26651964 0.813138 -0.16928768 -0.24419935 0.82012045 0.5024154 144 144 144
0.2714869 0.81326747 -0.1690278 -0.11689357 0.8080102 0.54096246 157 157 157
0.2764533 0.81341004 -0.16872597 0.010348224 0.8034243 0.57729715 165 165 165
0.28142568 0.81323004 -0.16944456 0.1372085 0.7567907 0.6096611 169 169 169
0.2864 0.81300235 -0.17031384 0.27196774 0.70259494 0.64388305 166 166 166
0.29138398 0.8124275 -0.17228174 0.4899172 0.5656606 0.616742 146 146 146
0.29639596 0.8109355 -0.17715025 0.8268411 0.44933426 0.26698294 125 125 125
0.30139443 0.8101096 -0.17991209 0.41734076 0.45184273 0.7600336 157 157 157
0.3063984 0.8092239 -0.18286324 0.77360034 0.3823571 0.48560756 133 133 133
0.3114869 0.8059926 -0.19323492 0.82134926 0.1648101 0.5228785 79 79 79
0.3166024 0.8024113 -0.20471382 0.7084551 -0.16215706 0.665334 100 100 100
0.32164237 0.80117774 -0.2087655 0.80294627 -0.20911889 0.502884 97 97 97
0.32685253 0.79592705 -0.22552633 0.70447403 -0.34583914 0.5968373 64 64 64
0.3319444 0.7939451 -0.23194647 0.720111 -0.29855523 0.5903704 88 88 88
0.3370708 0.791394 -0.24016762 0.87740606 -0.18647881 0.41090214 62 62 62
0.34251517 0.78240633 -0.26875257 0.83941084 -0.19470046 0.4396481 64 64 64
0.07185863 0.7969849 -0.19792986 -0.9255215 -0.15351671 0.2970771 28 28 28
0.077331275 0.8038447 -0.17645264 -0.8107928 -0.52056104 0.26884416 33 33 33
0.08273801 0.81017303 -0.15664959 -0.8016774 -0.37582943 0.45496395 31 31 31
0.08789846 0.8131268 -0.14748621 -0.7724357 -0.26838934 0.56928223 54 54 54
0.09299041 0.81519413 -0.14111662 -0.74689054 -0.24769996 0.6111042 58 58 58
0.09806304 0.8170943 -0.13527489 -0.7219828 -0.23896089 0.6401059 60 60 60
0.10475989 0.8471012 -0.040806293 -0.7680752 0.044534538 0.63244605 78 78 78
0.10972419 0.8484738 -0.036625385 -0.5326637 -0.007900828 0.80876935 100 100 100
0.11465576 0.84935164 -0.03400421 -0.04783678 -0.12527578 0.95165485 125 125 125
0.11950421 0.8486912 -0.036233425 0.30403838 -0.13139504 0.9206712 138 138 138
0.124348074 0.8478818 -0.038933277 0.15584108 -0.07889494 0.93668073 138 138 138
0.12926131 0.8484719 -0.037219524 -0.5567753 0.02009655 0.7934669 93 93 93
0.13423654 0.8505039 -0.030958176 -0.7926963 0.04553284 0.6087482 57 57 57
0.13922954 0.8531642 -0.022715569 -0.6880067 0.18977639 0.6514212 56 56 56
0.14416528 0.8547025 -0.018011093 -0.2368287 0.6050111 0.68816817 77 77 77
0.14900324 0.8538642 -0.02080059 0.13886702 0.73554516 0.6485758 109 109 109
0.15387793 0.853945 -0.020692348 -0.16642715 0.39181373 0.87860143 109 109 109
0.15876167 0.85430837 -0.019693375 -0.24346748 0.2815375 0.9228481 135 135 135
0.16364735 0.8547859 -0.018333912 -0.21986538 0.22654101 0.9297551 138 138 138
0.16853115 0.85527325 -0.016942978 -0.23566122 0.15447101 0.93534285 132 132 132
0.17341276 0.855762 -0.015548229 -0.25145704 0.08240101 0.9409306 129 129 129
0.17829198 0.8562484 -0.014160633 -0.25941783 0.010293374 0.94616395 123 123 123
0.18317232 0.8568795 -0.012316227 -0.21941343 -0.0005175291 0.96384895 126 126 126
0.18804964 0.85750556 -0.010488033 -0.17982364 -0.006017059 0.9718053 127 127 127
0.19291404 0.8575847 -0.010384083 -0.015415857 0.008241475 0.9599367 143 143 143
0.19777715 0.8576131 -0.01044035 0.18147899 0.061298866 0.9678658 155 155 155
0.20263192 0.85706735 -0.012309074 0.15353659 0.27917627 0.8477315 165 165 165
0.20749049 0.85664487 -0.013788223 0.20499654 0.5033163 0.74660134 170 170 170
0.21235019 0.8561559 -0.015476704 0.04749538 0.6417204 0.72138417 160 160 160
0.2172303 0.8581369 -0.009373665 -0.58881855 0.68585896 0.36160287 66 66 66
0.22209494 0.8588433 -0.007291317 0.12686898 0.5209543 0.75323755 98 98 98
0.22694843 0.85695624 -0.013391018 0.8285799 0.10546291 0.51546186 88 88 88
0.2318093 0.85403943 -0.02273941 0.86994195 0.29157662 0.3687093 121 121 121
0.23668285 0.8511944 -0.03186226 0.8978393 0.26177192 0.29434094 154 154 154
0.24168253 0.81646824 -0.14157104 0.923197 0.1306464 0.34813294 112 112 112
0.24666159 0.8118026 -0.15644073 0.9435769 0.15045147 0.27587736 111 111 111
0.25165543 0.8078418 -0.16908741 0.64354664 0.63082105 0.3612318 134 134 134
0.25662494 0.807981 -0.16879797 -0.20075987 0.8052892 0.42291337 126 126 126
0.26158202 0.8090658 -0.165524 -0.3498813 0.8361016 0.42079875 134 134 134
0.2665392 0.80980945 -0.16332722 -0.19114053 0.85615134 0.4565947 149 149 149
0.27150095 0.8100765 -0.1626339 -0.056063704 0.85152787 0.49257493 157 157 157
0.27646846 0.8099749 -0.16310453 0.1027741 0.816694 0.53634125 164 164 164
0.2814415 0.8096266 -0.1643529 0.23794796 0.7571869 0.5802918 166 166 166
0.28641608 0.80927587 -0.16560936 0.3566864 0.70085347 0.6077064 162 162 162
0.29140586 0.8083849 -0.16856956 0.497975 0.58288467 0.61947906 124 124 124
0.29641965 0.8067672 -0.17382431 0.8428949 0.40411282 0.27954826 109 109 109
0.3014242 0.8056922 -0.17736673 0.4568357 0.41403273 0.76932317 139 139 139
0.3064252 0.8048718 -0.18010569 0.7141732 0.34769142 0.5640602 136 136 136
0.31153578 0.800967 -0.19257832 0.8434207 0.11601041 0.49529558 92 92 92
0.3166768 0.7966964 -0.2062068 0.7609095 -0.18543571 0.61245114 108 108 108
0.32179776 0.7934241 -0.21668482 0.90415657 -0.25523293 0.3153182 76 76 76
0.32696232 0.7894373 -0.22941828 0.6743778 -0.36162275 0.62744117 57 57 57
0.33205503 0.78751874 -0.23562479 0.7202389 -0.31360397 0.59479517 72 72 72
0.33719277 0.784791 -0.24438477 0.8881646 -0.13034186 0.29566163 65 65 65
0.34261546 0.7763257 -0.2712555 0.8676898 -0.1824574 0.36925045 77 77 77
0.07179089 0.7906606 -0.20131731 -0.93189204 -0.06495752 0.32040545 34 34 34
0.07705304 0.79443455 -0.18959665 -0.85748196 -0.26270056 0.42425957 31 31 31
0.08246 0.8006289 -0.17026186 -0.7774435 -0.539744 0.31385723 32 32 32
0.0878205 0.8065269 -0.15185928 -0.76861477 -0.4047498 0.49467313 37 37 37
0.09294301 0.80902505 -0.14414978 -0.74832416 -0.2963867 0.58458465 52 52 52
0.098028675 0.81109476 -0.1377883 -0.7151667 -0.29299664 0.62296057 56 56 56
0.104774445 0.8419714 -0.04080248 -0.73584193 0.026236895 0.65269786 84 84 84
0.10972614 0.84310436 -0.037385464 -0.4684528 -0.014398655 0.84042346 108 108 108
0.11464674 0.8437512 -0.035497665 -0.0006038125 -0.10823986 0.9526196 128 128 128
0.119505994 0.843261 -0.037186623 0.3509846 -0.12409649 0.91633207 137 137 137
0.124353014 0.84248066 -0.0397892 0.09446866 -0.10205244 0.97091484 131 131 131
0.12928306 0.8433969 -0.037054062 -0.58939016 -0.0036535943 0.76924443 85 85 85
0.13427255 0.8457339 -0.029848099 -0.82715946 -0.021592673 0.5482775 47 47 47
0.13927206 0.8485501 -0.0211339 -0.75144804 0.018787775 0.65561914 47 47 47
0.14420335 0.8499844 -0.016767979 -0.46221876 0.2608669 0.77545595 63 63 63
0.14909229 0.8504782 -0.015360832 0.04800701 0.5815255 0.7390832 81 81 81
0.15393546 0.84976196 -0.017761707 0.15645143 0.68412685 0.695631 88 88 88
0.15880552 0.8497522 -0.017938614 0.10377636 0.6029498 0.754726 105 105 105
0.16368446 0.85002494 -0.017227173 -0.087854065 0.40869915 0.8781483 134 134 134
0.16856292 0.85032654 -0.01642418 -0.18862227 0.2812741 0.9203668 136 136 136
0.17344289 0.8507364 -0.015281677 -0.21142384 0.1986189 0.9457664 136 136 136
0.17832261 0.8512118 -0.013932705 -0.19530612 0.14587308 0.9605441 132 132 132
0.18320023 0.85169125 -0.012570381 -0.17953907 0.09091429 0.96780556 129 129 129
0.18807556 0.8521681 -0.011216164 -0.16348526 0.045692824 0.9803709 129 129 129
0.19294612 0.8525021 -0.010311127 -0.07694923 0.047491882 0.98398805 141 141 141
0.19781265 0.8526869 -0.009875774 -0.046921235 0.24518788 0.9325646 156 156 156
0.202675 0.8526368 -0.010180473 -0.108757645 0.58980244 0.74396014 157 157 157
0.20753935 0.8527496 -0.009971619 -0.29146323 0.7632497 0.5049963 134 134 134
0.21241002 0.8535752 -0.007519722 -0.39170304 0.84337205 0.36331996 101 101 101
0.21727768 0.85450864 -0.0047283173 -0.04183409 0.48150405 0.8463814 96 96 96
0.22213465 0.85419583 -0.005859852 0.5037575 0.11991448 0.79644036 94 94 94
0.22698878 0.85249805 -0.011349201 0.79950476 0.056483407 0.5721602 92 92 92
0.2318497 0.85015154 -0.018881798 0.8506183 0.10402245 0.48212093 130 130 130
0.23672141 0.8474107 -0.027656555 0.9001086 0.038253848 0.3682286 149 149 149
0.24172477 0.8111954 -0.14179993 0.9233888 0.10807324 0.3547701 110 110 110
0.24669987 0.80742764 -0.15380955 0.859747 0.3084338 0.31511655 117 117 117
0.25168407 0.8045621 -0.16298008 0.43260518 0.6911466 0.37786463 137 137 137
0.2566462 0.805109 -0.161407 -0.41833332 0.8634029 0.2931912 113 113 113
0.26160127 0.80601835 -0.15869427 -0.3999527 0.848721 0.35394576 130 130 130
0.26655483 0.80674815 -0.15654707 -0.11499128 0.8973807 0.39998195 152 152 152
0.27151662 0.8067925 -0.1565566 0.035883594 0.8776332 0.43967798 160 160 160
0.2764866 0.80638695 -0.15798283 0.21134858 0.8170526 0.5066174 165 165 165
0.28145704 0.8060405 -0.1592226 0.3383367 0.7553702 0.5434062 151 151 151
0.28644004 0.8052144 -0.16197348 0.44207555 0.66370314 0.5901079 142 142 142
0.29143503 0.8040583 -0.16576242 0.504758 0.5762081 0.5965758 119 119 119
0.2964422 0.8026426 -0.17036963 0.82235616 0.3595217 0.3509247 98 98 98
0.3014595 0.8010931 -0.17539835 0.51117146 0.38677028 0.75844646 122 122 122
0.30646098 0.8002436 -0.17822313 0.6534712 0.28912508 0.61687255 130 130 130
0.31158462 0.7959416 -0.19191885 0.86549217 0.06721078 0.46771264 116 116 116
0.3167514 0.79097295 -0.20771408 0.76804316 -0.18989933 0.5970641 110 110 110
0.32196003 0.7854843 -0.22514725 0.84501606 -0.28016126 0.39907476 51 51 51
0.3270617 0.783196 -0.23250341 0.6522754 -0.3526579 0.6585697 65 65 65
0.33215505 0.78133154 -0.23852539 0.7278821 -0.2910685 0.58780354 62 62 62
0.3373074 0.7783439 -0.24808455 0.9209615 -0.07564534 0.1470802 70 70 70
0.07177043 0.78499484 -0.20261669 -0.92160225 -0.049504265 0.372665 35 35 35
0.07699655 0.7882266 -0.19262457 -0.8545508 -0.17285138 0.479511 42 42 42
0.08218941 0.7911737 -0.18352604 -0.83133024 -0.2698956 0.4824473 40 40 40
0.08758141 0.797416 -0.16408587 -0.74374354 -0.5567141 0.3663866 32 32 32
0.092847764 0.8020797 -0.1495986 -0.7370188 -0.4349978 0.50210476 37 37 37
0.097983524 0.80490947 -0.14086676 -0.73204756 -0.32434645 0.6002415 51 51 51
0.1047876 0.83681583 -0.04087305 -0.67997557 -0.0072223716 0.676311 86 86 86
0.10973776 0.83790517 -0.037600517 -0.4044647 -0.038158208 0.86898607 112 112 112
0.11464973 0.83837175 -0.03628397 0.014715575 -0.1105281 0.94439435 131 131 131
0.119515575 0.8379793 -0.037662983 0.3429268 -0.14132054 0.91359496 133 133 133
0.12436 0.83711743 -0.0405159 0.12485377 -0.16372548 0.95491844 123 123 123
0.12928629 0.8379252 -0.0381279 -0.47896108 -0.22150159 0.80367965 82 82 82
0.13427885 0.8402977 -0.030827522 -0.820692 -0.1650354 0.53291947 40 40 40
0.13928181 0.843163 -0.021980762 -0.6837957 -0.25331238 0.6179971 37 37 37
0.14422783 0.844929 -0.01658392 -0.566838 -0.15248296 0.76290613 50 50 50
0.14913373 0.84584785 -0.013845921 -0.28455055 0.07148661 0.9047671 70 70 70
0.15401717 0.8462548 -0.01271534 -0.20454814 0.31144682 0.91222626 74 74 74
0.15888205 0.84616804 -0.0131344795 0.063994706 0.6310224 0.7401325 85 85 85
0.16374137 0.8458948 -0.014139175 0.050238978 0.5797547 0.78860563 85 85 85
0.16861033 0.8459146 -0.014224052 0.10556279 0.5666555 0.7980654 108 108 108
0.17348374 0.84610415 -0.0137758255 0.0066758157 0.43524668 0.8822901 140 140 140
0.17835915 0.8464112 -0.01295805 -0.09444307 0.30560863 0.91699237 139 139 139
0.18323249 0.8466921 -0.012223244 -0.17947724 0.17058392 0.96071434 128 128 128
0.18810871 0.84717655 -0.010848999 -0.124248296 0.12517431 0.9715073 127 127 127
0.19298023 0.8475294 -0.009887695 -0.17195983 0.120974116 0.9586016 133 133 133
0.19785276 0.8480432 -0.008420467 -0.29325435 0.39108822 0.8519954 144 144 144
0.20272763 0.84889627 -0.0058894157 -0.38069776 0.63534373 0.6286603 131 131 131
0.20759547 0.8494768 -0.0042128563 -0.2481915 0.4895646 0.7963465 122 122 122
0.21245933 0.84991956 -0.0029687881 -0.062977165 0.37760338 0.9106956 98 98 98
0.21731672 0.8497586 -0.0036206245 0.23288141 0.031381253 0.89243406 94 94 94
0.22217214 0.8491037 -0.005823612 0.5474283 -0.22643101 0.7572443 83 83 83
0.22702625 0.8470864 -0.012305737 0.6744396 -0.28195313 0.62034994 90 90 90
0.23188888 0.8447628 -0.019749641 0.7311914 -0.36723405 0.49549538 114 114 114
0.23676766 0.8380933 -0.040841103 0.87224084 -0.18736312 0.29682466 120 120 120
0.24176592 0.8062475 -0.14100122 0.90790844 0.17276946 0.35281256 108 108 108
0.24673957 0.802794 -0.15199614 0.7676985 0.51159996 0.3414359 123 123 123
0.2517129 0.80126786 -0.15693903 0.023871355 0.89094985 0.34629142 126 126 126
0.2566683 0.80215096 -0.154315 -0.39607212 0.8792241 0.2629418 119 119 119
0.2616183 0.80314803 -0.15133333 -0.2617936 0.92505825 0.27591908 125 125 125
0.2665716 0.80361533 -0.15001535 -0.030943025 0.9310481 0.34522712 115 115 115
0.27153733 0.8032081 -0.15144396 0.14452203 0.8704675 0.41216657 121 121 121
0.27650476 0.8028021 -0.15286875 0.31998697 0.8098868 0.47910604 121 121 121
0.28148133 0.8020406 -0.15541029 0.42331123 0.72353125 0.51607907 112 112 112
0.2864641 0.80115104 -0.1583538 0.519279 0.6243774 0.5653476 134 134 134
0.29145896 0.7999401 -0.16230774 0.5819614 0.5368824 0.5718155 131 131 131
0.29646468 0.7985215 -0.16691303 0.80175346 0.3224549 0.42008874 106 106 106
0.3014989 0.7963548 -0.17387009 0.54213 0.34457195 0.7530579 127 127 127
0.30649966 0.79552484 -0.17662668 0.64672124 0.24844249 0.6455338 138 138 138
0.31163347 0.7909162 -0.1912551 0.88756365 0.018411139 0.44012973 121 121 121
0.31682602 0.78524613 -0.20921755 0.7748901 -0.20410028 0.57637316 108 108 108
0.32206112 0.77911663 -0.22862434 0.7779767 -0.29752758 0.48097342 57 57 57
0.3271612 0.7769468 -0.23559332 0.6298223 -0.34590608 0.68218195 95 95 95
0.3322552 0.7751367 -0.24143076 0.7355892 -0.27605736 0.5830243 60 60 60
0.337422 0.7718911 -0.25177908 0.9455087 -0.015599822 -0.010875418 78 78 78
0.07178359 0.7798004 -0.20242643 -0.88748765 -0.07178574 0.434923 42 42 42
0.076963216 0.7823496 -0.19459581 -0.8446447 -0.11225196 0.5184962 51 51 51
0.08215448 0.785244 -0.18568373 -0.8211375 -0.19955885 0.52673644 52 52 52
0.08731763 0.78789973 -0.17751932 -0.80658126 -0.28594267 0.5105699 44 44 44
0.09264243 0.79334927 -0.16060543 -0.7512919 -0.54693913 0.37204495 31 31 31
0.09980047 0.8298261 -0.046532154 -0.91843504 0.11728637 0.077883765 58 58 58
0.10479854 0.83161926 -0.04106474 -0.6718847 -0.03735747 0.6848061 83 83 83
0.10976599 0.8330035 -0.036877632 -0.33337379 -0.10621613 0.8857073 109 109 109
0.1146663 0.83324337 -0.036273956 0.06876465 -0.14752789 0.9282138 128 128 128
0.11952882 0.8327668 -0.037914276 0.4502265 -0.16486262 0.8582308 131 131 131
0.12435411 0.83148766 -0.042067528 0.2789409 -0.204755 0.894336 122 122 122
0.12926735 0.83197355 -0.040693283 -0.21215099 -0.40248036 0.8199636 86 86 86
0.1341674 0.83221436 -0.040087223 -0.30235046 -0.5383893 0.74960804 73 73 73
0.1391162 0.83363223 -0.03579378 -0.27604553 -0.6416669 0.64784104 66 66 66
0.14421985 0.8390634 -0.018931389 -0.44415194 -0.6554821 0.57790965 46 46 46
0.14914505 0.84042454 -0.0148153305 -0.33407432 -0.49309266 0.7377516 46 46 46
0.15404177 0.8411586 -0.012662888 -0.3416522 -0.22789596 0.88918227 60 60 60
0.15892476 0.8415828 -0.011481285 -0.31563273 -0.045654334 0.92433804 68 68 68
0.16380307 0.84191895 -0.010575771 -0.19821069 0.2702468 0.88313985 78 78 78
0.16867599 0.84212613 -0.010073662 -0.088685475 0.5065159 0.84938735 83 83 83
0.1735426 0.8421376 -0.010184288 -0.0097926045 0.4857795 0.85999614 76 76 76
0.17840898 0.842144 -0.010311604 0.07693535 0.46500546 0.8702504 95 95 95
0.18326867 0.8418617 -0.0113425255 -0.031189358 0.3247823 0.9247644 104 104 104
0.18814278 0.84222984 -0.010335922 -0.19610448 0.19633067 0.9375412 97 97 97
0.19301967 0.8428428 -0.008563042 -0.4353657 0.2580978 0.8486762 106 106 106
0.19790268 0.84400773 -0.0050606728 -0.48623767 0.40836874 0.7495167 111 111 111
0.20277281 0.84462476 -0.003273964 -0.2299985 0.3230679 0.86907107 115 115 115
0.20763707 0.8449757 -0.0023217201 -0.030803483 0.19244206 0.9473423 105 105 105
0.21249443 0.84477353 -0.0031018257 0.25530785 -0.18959336 0.89097464 85 85 85
0.21733657 0.8423896 -0.010716915 0.4657583 -0.7740767 0.39850628 89 89 89
0.22218864 0.8399389 -0.01854229 0.5710544 -0.65771765 0.45754504 107 107 107
0.22705299 0.83803105 -0.024666786 0.6133195 -0.54327065 0.5119033 102 102 102
0.231925 0.8353672 -0.03316021 0.79864246 0.114465356 0.54694486 155 155 155
0.23680732 0.83352923 -0.03906679 0.8853914 0.18704565 0.3742124 153 153 153
0.24171746 0.82618856 -0.062214375 0.8509119 0.43502158 0.106389865 100 100 100
0.2467742 0.79904866 -0.14740181 0.47760406 0.7971474 0.3200033 106 106 106
0.25173202 0.79918146 -0.14713573 -0.069616444 0.9245608 0.1852574 103 103 103
0.25667793 0.80042315 -0.143394 -0.20612903 0.9676915 0.113454044 95 95 95
0.26162374 0.80122566 -0.14102888 -0.08720084 0.975979 0.13820216 98 98 98
0.266577 0.80126286 -0.14106226 0.12947947 0.9360125 0.24625462 108 108 108
0.2715391 0.8007593 -0.14278936 0.29752403 0.87015814 0.32327724 106 106 106
0.27651644 0.79956126 -0.1466937 0.41910097 0.78416944 0.41658005 102 102 102
0.28149736 0.7984352 -0.15037203 0.5158341 0.6819173 0.48309356 96 96 96
0.28648695 0.79714394 -0.15456915 0.59648246 0.5850518 0.5405873 103 103 103
0.29148287 0.79582286 -0.15885878 0.6509152 0.5029057 0.537681 136 136 136
0.296488 0.79437375 -0.1635499 0.7954491 0.31629574 0.4549331 145 145 145
0.30153844 0.79161453 -0.17234802 0.5730885 0.30237365 0.74766934 152 152 152
0.3065391 0.79078317 -0.17510414 0.64726377 0.22808237 0.6596872 130 130 130
0.31170428 0.7852473 -0.19260454 0.9150155 -0.045917004 0.35957834 108 108 108
0.31690073 0.77951336 -0.21072674 0.7820238 -0.20856386 0.5609861 102 102 102
0.32216373 0.77270365 -0.23222208 0.7112879 -0.31268093 0.5703884 96 96 96
0.3272517 0.7709136 -0.23798466 0.62262464 -0.33391812 0.6953566 110 110 110
0.3323556 0.768934 -0.2443409 0.74323237 -0.25352192 0.5760327 82 82 82
0.33753693 0.76542616 -0.25548792 0.9782417 0.0466211 -0.1616693 62 62 62
0.07178424 0.7744267 -0.20279169 -0.86984146 -0.04353435 0.474887 50 50 50
0.07696058 0.776916 -0.19516611 -0.82741314 -0.07868921 0.54873157 57 57 57
0.08212888 0.7794497 -0.18740225 -0.8115821 -0.1411724 0.55820537 60 60 60
0.08729674 0.782151 -0.17911434 -0.796898 -0.24260496 0.54646355 54 54 54
0.09242678 0.7844336 -0.17213345 -0.79001796 -0.30416504 0.5315306 46 46 46
0.09986608 0.82555676 -0.04380703 -0.8272895 0.08065005 0.5345492 71 71 71
0.10480656 0.82636905 -0.041417122 -0.56591815 0.043592695 0.76242304 98 98 98
0.10975591 0.8274081 -0.03831911 -0.34203595 -0.18274976 0.875908 104 104 104
0.11466836 0.8278396 -0.037118435 0.09287624 -0.17552525 0.94351614 126 126 126
0.119518295 0.8270843 -0.03962612 0.4277404 -0.11075159 0.8760851 135 135 135
0.12435491 0.8259907 -0.043190956 0.31792417 -0.18237005 0.8859265 129 129 129
0.12924588 0.82596254 -0.04342699 -0.19071561 -0.16797385 0.92178714 117 117 117
0.13416679 0.82660794 -0.04155779 -0.42968798 -0.1836634 0.84752965 106 106 106
0.13911022 0.82785606 -0.037805557 -0.50234044 -0.14924344 0.7998642 105 105 105
0.1440541 0.82925344 -0.03358698 -0.6069064 -0.1341477 0.7430088 95 95 95
0.14899904 0.830843 -0.028768063 -0.65611553 -0.17951027 0.70137113 86 86 86
0.15393738 0.8324456 -0.023906708 -0.7055474 -0.24213457 0.6566419 76 76 76
0.15889291 0.83477163 -0.016786098 -0.61467886 -0.43689096 0.6033489 56 56 56
0.1638234 0.83662605 -0.011137962 -0.47915077 -0.2861225 0.80634606 67 67 67
0.16871458 0.837414 -0.008822918 -0.18164097 -0.009557605 0.9320114 77 77 77
0.1735948 0.8379283 -0.0073623657 -0.0008660615 0.18343961 0.9158593 83 83 83
0.17846772 0.83824015 -0.0065350533 0.14850481 0.38411176 0.8989126 81 81 81
0.18331434 0.83745146 -0.00914669 0.19523042 0.28695464 0.9007855 88 88 88
0.188179 0.83738565 -0.00949955 -0.1580762 0.15719312 0.9145532 87 87 87
0.19306725 0.83860445 -0.0058379173 -0.6119116 0.1850106 0.7720371 90 90 90
0.1979433 0.83940125 -0.0034937859 -0.3883864 0.21803714 0.85009503 94 94 94
0.20281115 0.83985996 -0.0022072792 0.06990725 0.06580949 0.9308222 111 111 111
0.2076644 0.83925176 -0.004254818 0.5055138 -0.33866507 0.7104023 87 87 87
0.21250083 0.8366029 -0.012681961 0.69151235 -0.2731765 0.6497062 92 92 92
0.21735765 0.8351736 -0.017296791 0.69329447 -0.13508277 0.67443836 144 144 144
0.22222064 0.833745 -0.02190876 0.702561 0.00076035917 0.69129986 165 165 165
0.22709018 0.83246875 -0.0260458 0.710299 0.055606287 0.682975 134 134 134
0.23196504 0.8309994 -0.030786514 0.7541179 0.17001683 0.59814006 152 152 152
0.23684655 0.82929015 -0.036277294 0.8262488 0.24931133 0.4486654 152 152 152
0.24175371 0.82251143 -0.057616234 0.7767984 0.5889825 0.18728073 139 139 139
0.24669366 0.8151784 -0.08068848 0.7162553 0.55520225 0.24097219 113 113 113
0.25167218 0.8070018 -0.10639906 0.44263476 0.8162221 -0.28142813 121 121 121
0.25667107 0.8003192 -0.12743998 0.04378596 0.9832704 -0.09102935 96 96 96
0.26162723 0.7994611 -0.13027239 0.13567913 0.96338063 0.033302408 100 100 100
0.26658028 0.79906344 -0.13166523 0.29745018 0.931202 0.14162378 105 105 105
0.27154872 0.7978463 -0.13562012 0.41160673 0.83993953 0.24500974 119 119 119
0.27652657 0.7964053 -0.140275 0.51834285 0.74340326 0.35847884 116 116 116
0.28150487 0.7952337 -0.14408827 0.6150759 0.6411511 0.42499232 129 129 129
0.2865068 0.79326725 -0.15038681 0.6573145 0.54137534 0.50150335 117 117 117
0.29150176 0.79190326 -0.15480089 0.712034 0.46896666 0.50390095 131 131 131
0.29651308 0.79016113 -0.16039848 0.81111914 0.3162205 0.45422417 153 153 153
0.30157834 0.78686 -0.17087126 0.59656274 0.26242593 0.7501516 140 140 140
0.3065785 0.7860422 -0.17357874 0.67070496 0.23549385 0.65641147 134 134 134
0.31178316 0.77933884 -0.1946907 0.9488357 -0.111610346 0.24639496 101 101 101
0.3169862 0.7734821 -0.21315622 0.8976603 -0.23881902 0.3435254 89 89 89
0.32226652 0.7662821 -0.23582315 0.63641346 -0.33000958 0.65264153 116 116 116
0.32734144 0.7648952 -0.24031258 0.61536306 -0.31440583 0.7063189 119 119 119
0.3324558 0.76272655 -0.24724627 0.75122625 -0.22877346 0.5765574 114 114 114
0.33784723 0.754621 -0.27274704 0.8413561 -0.20620863 0.48386666 86 86 86
0.07178518 0.7690544 -0.2031436 -0.85257673 -0.05733078 0.51088035 54 54 54
0.07695891 0.77149343 -0.19569302 -0.81887674 -0.07430086 0.5634097 61 61 61
0.082114816 0.7738254 -0.18857622 -0.80253625 -0.10978496 0.5812789 63 63 63
0.08727594 0.7763994 -0.18070507 -0.78762937 -0.1939558 0.5726286 62 62 62
0.09240861 0.77869606 -0.173697 -0.7806854 -0.2630403 0.5599081 55 55 55
0.09989342 0.82064676 -0.0430851 -0.79390717 0.014107809 0.5853202 73 73 73
0.1048315 0.8214116 -0.040849686 -0.50871307 0.026509732 0.81388897 104 104 104
0.10975665 0.8220041 -0.039150715 -0.2045726 0.010029966 0.9436827 126 126 126
0.11466669 0.82236266 -0.038180828 0.12533021 -0.08936722 0.9575559 134 134 134
0.1195328 0.8218901 -0.039802074 0.4744308 -0.07335555 0.8628964 136 136 136
0.12435654 0.8205068 -0.04426241 0.3036877 -0.13360803 0.91315496 135 135 135
0.12925254 0.8205497 -0.044276237 -0.2922225 -0.07807769 0.9246079 119 119 119
0.13419485 0.821645 -0.041009903 -0.523298 -0.014135247 0.84290475 112 112 112
0.13913952 0.82291126 -0.037210464 -0.5959505 0.020284692 0.79523927 110 110 110
0.1440765 0.824126 -0.03357172 -0.6364335 0.04393137 0.76561326 106 106 106
0.14902186 0.82570624 -0.028792381 -0.68532497 0.048140947 0.7257339 98 98 98
0.15396374 0.82738376 -0.023709774 -0.71074224 0.012402839 0.68833673 93 93 93
0.15889838 0.8290682 -0.018606186 -0.7362544 -0.055645723 0.65227276 82 82 82
0.16382663 0.8307843 -0.013402462 -0.6471645 -0.18043332 0.72577786 80 80 80
0.16873528 0.8320875 -0.009487152 -0.41357237 -0.14921524 0.8530038 79 79 79
0.17362311 0.8328316 -0.0073137283 -0.09411686 0.0064047757 0.95596504 81 81 81
0.1785019 0.83334494 -0.0058608055 0.08700878 0.20161496 0.94732916 86 86 86
0.18335855 0.8329785 -0.00715065 0.42123765 0.16724432 0.8763815 85 85 85
0.18821275 0.8324208 -0.009036541 -0.071919605 0.02975039 0.9235033 86 86 86
0.19309671 0.8333702 -0.0062236786 -0.55623275 -0.0002635653 0.80762035 76 76 76
0.19798131 0.8346262 -0.0024542809 -0.35509676 0.03199046 0.9115029 98 98 98
0.20284489 0.8347614 -0.0021800995 0.17819285 0.14362474 0.8864909 130 130 130
0.2076885 0.83324313 -0.0070610046 0.6933872 -0.015578305 0.66380155 104 104 104
0.2125373 0.8315842 -0.0123820305 0.70806706 0.05737711 0.63345253 148 148 148
0.21739572 0.83026624 -0.01663971 0.7173026 0.15338542 0.6538596 172 172 172
0.22226138 0.8292551 -0.0199399 0.7100741 0.12553856 0.67057985 165 165 165
0.22713026 0.8278804 -0.024374962 0.6878129 0.1097173 0.70082927 138 138 138
0.23200504 0.82659984 -0.02851677 0.708956 0.21361803 0.636515 147 147 147
0.23688579 0.82503843 -0.03353405 0.7668195 0.30183965 0.51781446 145 145 145
0.2417774 0.82232237 -0.04215288 0.92983997 0.27973202 0.13206019 142 142 142
0.24669188 0.8176787 -0.05678463 0.8599269 0.42657417 0.133009 152 152 152
0.25164822 0.81031036 -0.07991552 0.7379199 0.5453885 0.37379807 112 112 112
0.2566269 0.803895 -0.10007477 0.680544 0.6783989 0.1327083 114 114 114
0.26160255 0.79998446 -0.11242199 0.5192163 0.83229506 0.021266393 125 125 125
0.26657298 0.7975986 -0.12001324 0.53247243 0.80304426 0.14383894 122 122 122
0.27155092 0.7953806 -0.1270814 0.5746779 0.7506277 0.214592 123 123 123
0.27653664 0.79325676 -0.1338563 0.61723405 0.7004242 0.2928613 119 119 119
0.28152272 0.7915511 -0.13932705 0.68367904 0.60496145 0.38334155 110 110 110
0.2865266 0.7893925 -0.14621115 0.70989686 0.50304794 0.45304525 136 136 136
0.29152265 0.7879081 -0.15099144 0.7725792 0.41555294 0.4595131 123 123 123
0.29654315 0.78576994 -0.15781212 0.8630332 0.22610794 0.39649147 136 136 136
0.30161685 0.7821529 -0.16924715 0.62685084 0.25563648 0.72618484 110 110 110
0.3066188 0.78127146 -0.17214727 0.69328594 0.21369328 0.63722396 135 135 135
0.31200543 0.7692244 -0.20988369 0.8044129 -0.20779133 0.53516144 76 76 76
0.31707734 0.7672918 -0.21606445 0.939728 -0.22266738 0.23041265 93 93 93
0.32236725 0.759907 -0.23925638 0.58427876 -0.34435275 0.7165863 117 117 117
0.3274313 0.75886965 -0.24264526 0.60816544 -0.30241787 0.71949357 120 120 120
0.3325506 0.75664425 -0.24974108 0.74374187 -0.22652283 0.58442813 114 114 114
0.3379339 0.7487657 -0.27447605 0.8633306 -0.20012474 0.44831336 66 66 66
0.07178599 0.76367784 -0.2035017 -0.83623624 -0.0928149 0.5287496 56 56 56
0.076957315 0.7660692 -0.19621658 -0.8110726 -0.1141733 0.5666008 60 60 60
0.082114756 0.76840925 -0.18909168 -0.79450935 -0.13239571 0.5875616 62 62 62
0.08725503 0.77064157 -0.18230104 -0.7861318 -0.15279342 0.60136056 67 67 67
0.092389956 0.7729461 -0.17528534 -0.77106607 -0.21217823 0.5935894 62 62 62
0.09986557 0.81480765 -0.045250416 -0.91179883 -0.054889806 0.24284598 36 36 36
0.10485847 0.816488 -0.040172577 -0.54212415 -0.03397683 0.7759671 97 97 97
0.109783396 0.8170693 -0.038512707 -0.22772704 0.012355841 0.95226234 122 122 122
0.114674605 0.81706285 -0.03868103 0.1560617 0.025560757 0.9304686 138 138 138
0.11955086 0.81676316 -0.039761066 0.53608996 -0.040460724 0.8339662 136 136 136
0.12435843 0.8150239 -0.04531908 0.2891006 -0.08705902 0.9328671 135 135 135
0.12926155 0.8151846 -0.04496813 -0.37828207 -0.00551849 0.9236282 123 123 123
0.13421586 0.8165207 -0.040959835 -0.6135636 -0.05532585 0.76103324 103 103 103
0.13918357 0.81831646 -0.035522938 -0.61238587 0.023458362 0.7787033 108 108 108
0.14411882 0.81949663 -0.032000065 -0.6443964 0.05901772 0.761543 106 106 106
0.1490435 0.82053494 -0.028918266 -0.65331435 0.012581588 0.7428942 97 97 97
0.15399188 0.82237077 -0.023355484 -0.7349487 0.008089764 0.67436755 89 89 89
0.15893124 0.8241794 -0.017877102 -0.734695 0.065186284 0.6739135 93 93 93
0.16384706 0.8254874 -0.01395607 -0.6127696 0.06860456 0.765429 97 97 97
0.16875777 0.82681775 -0.009964943 -0.49928346 0.012750927 0.8502368 89 89 89
0.17364703 0.82756996 -0.007771969 -0.2605338 0.011178794 0.9214027 84 84 84
0.17853114 0.82824874 -0.0058078766 -0.0062420745 0.024580125 0.9874349 85 85 85
0.1833905 0.8279617 -0.0068483353 0.5509286 0.05728079 0.80449635 83 83 83
0.18823689 0.82697916 -0.010053158 0.038412537 -0.13321407 0.9499681 78 78 78
0.19312441 0.8280356 -0.006913662 -0.50816625 -0.16823837 0.8466496 65 65 65
0.19801347 0.82948637 -0.002547264 -0.4440523 -0.11985267 0.8703334 87 87 87
0.20287837 0.82964325 -0.0022068024 0.25596973 0.12377375 0.8723384 127 127 127
0.20772244 0.82807255 -0.0072407722 0.7238277 0.26400033 0.61280316 108 108 108
0.21257652 0.8268564 -0.011172771 0.7236998 0.27904907 0.6083784 175 175 175
0.21743737 0.8258455 -0.014465332 0.7243063 0.2511646 0.6247442 174 174 174
0.22230247 0.82483244 -0.017765045 0.71701384 0.23084211 0.63925207 172 172 172
0.22717088 0.82348895 -0.022093296 0.6948166 0.20749648 0.6717138 173 173 173
0.23204492 0.8219452 -0.027044773 0.6868845 0.26241767 0.66409796 148 148 148
0.23692498 0.8207805 -0.030816555 0.7387634 0.3068583 0.59130365 137 137 137
0.24181491 0.8182788 -0.038749218 0.87990415 0.31097716 0.23976944 134 134 134
0.2467219 0.81469727 -0.050043106 0.8688779 0.42565113 0.15741576 148 148 148
0.2516862 0.80586386 -0.07768059 0.7764598 0.44605604 0.36850914 121 121 121
0.25662586 0.80322933 -0.0860281 0.8140128 0.5329535 -0.19898517 93 93 93
0.26160005 0.79871607 -0.100223064 0.7342522 0.5856666 0.28845248 112 112 112
0.26657453 0.7955291 -0.11029005 0.71360654 0.64947855 0.17241745 125 125 125
0.27155226 0.7929723 -0.11839771 0.73106307 0.613109 0.21504791 144 144 144
0.27654088 0.7904227 -0.12648201 0.74144983 0.5736786 0.27527782 140 140 140
0.2815404 0.78787446 -0.13456297 0.75218725 0.53646135 0.343024 123 123 123
0.2865464 0.7855222 -0.14203453 0.77066493 0.46689594 0.41174892 118 118 118
0.2915539 0.78350854 -0.1484518 0.82513064 0.33739075 0.41460058 98 98 98
0.2965756 0.7812946 -0.15549326 0.923133 0.13817076 0.34592056 95 95 95
0.30165228 0.7775495 -0.16730118 0.6416916 0.26618397 0.70601857 117 117 117
0.30666003 0.77647424 -0.1707983 0.79061556 0.13707608 0.54066217 120 120 120
0.31207997 0.76342964 -0.21155357 0.8116106 -0.21977931 0.5219868 79 79 79
0.31736556 0.7556572 -0.23589993 0.77125764 -0.29837537 0.50608915 81 81 81
0.3224632 0.75365376 -0.24228859 0.56176174 -0.33007658 0.73798615 119 119 119
0.3275233 0.7527878 -0.24513626 0.6083882 -0.28515613 0.7225851 119 119 119
0.33264416 0.7505853 -0.2521448 0.7445072 -0.22962123 0.60167307 105 105 105
0.33801928 0.7429354 -0.27611256 0.88501835 -0.20377818 0.40745616 58 58 58
0.071786255 0.75829077 -0.20388365 -0.8194811 -0.13361038 0.5563475 58 58 58
0.07694699 0.7605133 -0.19713974 -0.8033325 -0.14652136 0.56757957 61 61 61
0.082097605 0.7627306 -0.19041204 -0.7946682 -0.15718178 0.58668244 64 64 64
0.087238386 0.764946 -0.18369055 -0.7785196 -0.17009279 0.5979146 64 64 64
0.092371374 0.7671931 -0.17686939 -0.7625937 -0.2002655 0.60605514 64 64 64
0.099853665 0.8092315 -0.0465827 -0.94117266 0.027106866 0.10549572 45 45 45
0.10486102 0.811136 -0.04082203 -0.50116265 -0.070459224 0.8175342 96 96 96
0.109812416 0.8121748 -0.037746906 -0.24416025 -0.0716645 0.9450299 116 116 116
0.11470702 0.8122244 -0.037741184 0.18020634 -0.0497958 0.951529 136 136 136
0.11955341 0.81132793 -0.04067135 0.43535262 -0.12805092 0.8726391 131 131 131
0.12437044 0.8097465 -0.045726776 0.21947636 -0.017673504 0.94842345 142 142 142
0.1292958 0.81036115 -0.0439682 -0.35458726 0.058989525 0.91989833 129 129 129
0.13423803 0.8114207 -0.040828705 -0.57333636 -0.04887504 0.78180975 106 106 106
0.13922125 0.81357074 -0.03430462 -0.67936903 -0.035106856 0.69267684 93 93 93
0.14416118 0.8148682 -0.030426502 -0.6444604 0.06654209 0.7593306 107 107 107
0.14907591 0.8156483 -0.02815342 -0.5712984 0.059121218 0.8153915 113 113 113
0.15401599 0.8172424 -0.023354053 -0.72736734 -0.04904441 0.67446715 85 85 85
0.15896839 0.81941843 -0.016748905 -0.71886396 0.00270311 0.6833873 89 89 89
0.16389358 0.8210268 -0.01190424 -0.62069947 0.03633173 0.76711667 105 105 105
0.16879079 0.82191014 -0.0093102455 -0.4519865 0.022262514 0.8534139 90 90 90
0.17367929 0.82261705 -0.0072641373 -0.25234812 0.013354152 0.92856455 88 88 88
0.17856324 0.82326627 -0.005396843 -0.014299877 0.0073560537 0.9846979 85 85 85
0.18342233 0.8229356 -0.006571293 0.6112842 -0.060753856 0.76277494 80 80 80
0.18825915 0.8214414 -0.011356354 0.122654855 -0.20931381 0.911154 76 76 76
0.19314052 0.8220563 -0.009595394 -0.47590202 -0.14670122 0.8633558 62 62 62
0.19803683 0.82378674 -0.00437212 -0.51647985 -0.155365 0.83506304 62 62 62
0.20291385 0.8246672 -0.001786232 -0.055005647 0.013740989 0.95198035 94 94 94
0.2077709 0.8241582 -0.003513813 0.55604666 0.33343178 0.7147675 116 116 116
0.21262217 0.822809 -0.007849693 0.6544571 0.3904824 0.6279054 165 165 165
0.21748133 0.8217554 -0.011267662 0.66248405 0.36787167 0.63418806 179 179 179
0.22234452 0.82060695 -0.014980793 0.686342 0.2827778 0.64994454 163 163 163
0.22721072 0.81881714 -0.020685196 0.7093707 0.20830664 0.6462437 178 178 178
0.23208487 0.8174536 -0.025066376 0.6722356 0.22929706 0.69090134 151 151 151
0.2369645 0.8163173 -0.02874279 0.73179066 0.24891399 0.61687344 125 125 125
0.241852 0.81435657 -0.034977913 0.86418223 0.17786334 0.42701066 124 124 124
0.24675688 0.81084514 -0.046028614 0.93618953 0.09781854 0.29171848 129 129 129
0.25172412 0.8014164 -0.07545233 0.8231854 0.34889892 0.370382 130 130 130
0.25665003 0.8000798 -0.07975054 0.8232163 0.3887337 0.3668364 96 96 96
0.26162913 0.7948899 -0.09601498 0.81522036 0.4511793 0.35700813 110 110 110
0.26658443 0.7928884 -0.102378845 0.76942104 0.48283005 0.38256297 119 119 119
0.27156678 0.7897768 -0.11219072 0.75839686 0.51031005 0.30951285 150 150 150
0.27655226 0.7872126 -0.1203022 0.77585334 0.47394052 0.35214335 129 129 129
0.28154886 0.7846434 -0.12843037 0.7937245 0.43225965 0.40450248 145 145 145
0.28656498 0.7817061 -0.13770199 0.80929965 0.3998739 0.40512678 126 126 126
0.29158375 0.7791641 -0.14574623 0.87774605 0.2517042 0.37190044 102 102 102
0.29664144 0.7756052 -0.15694857 0.94389874 0.025635595 0.29624286 78 78 78
0.3016877 0.7729473 -0.1653533 0.65659636 0.26920712 0.6880647 122 122 122
0.30671987 0.77109146 -0.17126799 0.8780701 0.03969431 0.40156955 106 106 106
0.31215382 0.7576537 -0.21315145 0.81874424 -0.22424288 0.5065998 83 83 83
0.317463 0.7492726 -0.23933363 0.70415425 -0.30821732 0.58577543 98 98 98
0.3225505 0.7476189 -0.24462175 0.56239915 -0.31812626 0.7508064 115 115 115
0.32762095 0.74656177 -0.24805737 0.61638206 -0.2604077 0.7231098 100 100 100
0.33273777 0.7445228 -0.2545433 0.73737353 -0.22515763 0.6170601 105 105 105
0.07173565 0.7521739 -0.20651627 -0.83094865 -0.22784783 0.48641795 44 44 44
0.076913506 0.7546127 -0.19911909 -0.79645246 -0.20808151 0.55264664 55 55 55
0.08207895 0.75702477 -0.19180489 -0.78699195 -0.1820055 0.5854488 61 61 61
0.08722164 0.7592447 -0.18508434 -0.7708433 -0.1949165 0.59668094 62 62 62
0.09235448 0.76146245 -0.17837048 -0.762179 -0.20557688 0.6157838 63 63 63
0.09989117 0.80448675 -0.045329094 -0.86042595 0.17061435 0.31318653 48 48 48
0.104856715 0.8056607 -0.041843414 -0.47609815 0.050259877 0.83811146 102 102 102
0.10981459 0.80678916 -0.0384984 -0.23626126 -0.07922648 0.94688785 115 115 115
0.114711665 0.8068576 -0.038434982 0.19240484 -0.20655406 0.8907188 125 125 125
0.119551815 0.8058069 -0.04183626 0.39672002 -0.1482229 0.8885649 133 133 133
0.124393925 0.8047042 -0.045398712 0.08656539 0.079897545 0.9504497 148 148 148
0.12932995 0.8055351 -0.042975426 -0.3390142 0.11379781 0.91121906 130 130 130
0.13426888 0.80651593 -0.040087223 -0.49982598 0.033111043 0.83608335 109 109 109
0.1392113 0.8076844 -0.036618233 -0.7605557 -0.09226925 0.6396369 76 76 76
0.14420359 0.8102412 -0.028849125 -0.644875 0.07185347 0.7496019 101 101 101
0.14911923 0.8110509 -0.026490688 -0.5390342 0.080658376 0.8320977 116 116 116
0.15402818 0.81177425 -0.02439928 -0.5390651 0.04082357 0.83564335 111 111 111
0.15897968 0.8138771 -0.018035889 -0.7524339 -0.08256953 0.64458627 80 80 80
0.1639286 0.81619525 -0.011005402 -0.6130872 0.019032395 0.7636707 91 91 91
0.16882268 0.81696177 -0.008779526 -0.38975176 -0.0125619555 0.8443951 90 90 90
0.1737122 0.8176861 -0.0066843033 -0.1975338 -0.026744079 0.92962885 89 89 89
0.17859606 0.8183117 -0.0048947334 0.040227726 -0.042479534 0.9804583 86 86 86
0.18344428 0.817467 -0.0076584816 0.6416693 -0.12242686 0.7467786 83 83 83
0.18827921 0.8157866 -0.013010979 0.2642898 -0.15068161 0.9118358 80 80 80
0.1931566 0.81606674 -0.012290955 -0.4194952 -0.11332661 0.8918188 65 65 65
0.19805595 0.817816 -0.0070209503 -0.5080714 -0.13592795 0.84531635 60 60 60
0.20294452 0.8193393 -0.002450943 -0.42108977 -0.099605456 0.85511655 68 68 68
0.20781285 0.819685 -0.0015287399 0.24960135 0.12513894 0.9049704 125 125 125
0.21266738 0.81872153 -0.0046596527 0.60136527 0.40181074 0.6679681 156 156 156
0.21752442 0.81754494 -0.008451939 0.6410212 0.30159283 0.6874404 171 171 171
0.22238368 0.81581545 -0.013956547 0.7617302 0.15271749 0.594694 142 142 142
0.2272489 0.8135803 -0.021028519 0.6952642 0.15482587 0.68720055 166 166 166
0.23212472 0.8128202 -0.02353096 0.64975154 0.19621402 0.71805924 158 158 158
0.23700403 0.8118558 -0.026665688 0.71698284 0.19100724 0.6427977 119 119 119
0.24189305 0.80934405 -0.034595013 0.88616097 0.009559207 0.41006458 101 101 101
0.24680258 0.8051567 -0.047714233 0.942818 -0.10803216 0.28654322 119 119 119
0.25176206 0.7969682 -0.07322979 0.869911 0.2517418 0.3722549 133 133 133
0.2566873 0.79564095 -0.07749033 0.8628722 0.28851587 0.3863087 101 101 101
0.26162824 0.79349756 -0.08427954 0.8617133 0.3902799 0.17634842 109 109 109
0.2666184 0.78858423 -0.09965038 0.82500273 0.3524395 0.41017583 109 109 109
0.2715775 0.7868128 -0.105288506 0.7952881 0.37870365 0.44475037 131 131 131
0.27656332 0.78402257 -0.11408234 0.8031871 0.37114164 0.44660828 132 132 132
0.2815659 0.78100324 -0.12358713 0.81834763 0.3440673 0.4375039 130 130 130
0.28658342 0.7778983 -0.13335752 0.84035516 0.30279207 0.4077086 126 126 126
0.29160023 0.77535105 -0.14139986 0.90096664 0.15465996 0.3748367 108 108 108
0.2967071 0.76991916 -0.15838099 0.87775034 0.077316135 0.39050764 78 78 78
0.30172178 0.7683909 -0.16326666 0.663825 0.29705396 0.6713444 121 121 121
0.30678746 0.7654617 -0.17249441 0.9573081 -0.099697635 0.25886068 96 96 96
0.31222668 0.75190306 -0.21465778 0.82594186 -0.23623087 0.4934251 67 67 67
0.31756055 0.7428825 -0.24276161 0.6370508 -0.31805927 0.6654617 109 109 109
0.322638 0.7415767 -0.24696064 0.5551376 -0.2986139 0.76176864 96 96 96
0.32771862 0.7403312 -0.25097322 0.6240252 -0.23787221 0.71611816 85 85 85
0.3328274 0.738549 -0.25664854 0.7377242 -0.22294465 0.6245764 103 103 103
0.07168475 0.7460468 -0.20916224 -0.8345812 -0.32212293 0.41613394 32 32 32
0.07686667 0.74850917 -0.20170975 -0.79043263 -0.2988537 0.52180195 44 44 44
0.082035676 0.75093865 -0.19435883 -0.7731371 -0.27281532 0.5542497 50 50 50
0.0871937 0.7533624 -0.1870246 -0.76402724 -0.24895224 0.5795356 56 56 56
0.092339724 0.7557628 -0.17976284 -0.7545668 -0.22287625 0.61233777 60 60 60
0.09995192 0.8001356 -0.0428586 -0.64147943 0.37677437 0.6187461 95 95 95
0.10488585 0.8007698 -0.041049004 -0.38784385 0.19767703 0.86424845 114 114 114
0.10982229 0.8015013 -0.038938046 -0.17234142 0.078926325 0.9546309 125 125 125
0.11470685 0.80130816 -0.03968382 0.24826476 0.021568647 0.8864212 140 140 140
0.11956366 0.8005483 -0.042179585 0.52054566 0.031759806 0.82979625 146 146 146
0.12441766 0.79966474 -0.045057774 -0.04628169 0.16994423 0.9546884 148 148 148
0.12936415 0.80070925 -0.041980267 -0.3230905 0.17081907 0.910056 122 122 122
0.13430893 0.80182004 -0.038697243 -0.5070258 0.132293 0.83995444 102 102 102
0.13923323 0.8025577 -0.036567688 -0.63019085 -0.02957911 0.7378601 81 81 81
0.1442252 0.80508876 -0.028896809 -0.7525949 -0.020161614 0.6344035 75 75 75
0.1491623 0.8064487 -0.024843693 -0.5068339 0.1097199 0.84659153 120 120 120
0.15406603 0.80703044 -0.023195267 -0.5146999 0.06992273 0.85049164 120 120 120
0.15897211 0.8077626 -0.021081448 -0.6131181 -0.020802429 0.7672163 99 99 99
0.1639405 0.8106158 -0.012414932 -0.71934044 -0.07165513 0.68074983 84 84 84
0.1688495 0.811836 -0.008792877 -0.46864468 0.008174444 0.83378637 86 86 86
0.17374113 0.8126054 -0.0065636635 -0.23712358 -0.02124455 0.9216725 86 86 86
0.1786178 0.812902 -0.005795002 0.28616726 -0.08971418 0.8683121 86 86 86
0.18345958 0.8116939 -0.00967598 0.4804816 -0.12429289 0.8285061 82 82 82
0.18831299 0.81081104 -0.012552261 0.30457664 0.022632817 0.91621745 86 86 86
0.19318323 0.8106556 -0.013180733 -0.30015454 -0.0231565 0.916992 73 73 73
0.19807488 0.8118229 -0.009721756 -0.4516006 -0.11007767 0.87599176 62 62 62
0.20296934 0.8135767 -0.0044498444 -0.54024076 -0.12515463 0.8272769 55 55 55
0.20785023 0.8148112 -0.0007829666 -0.06937002 0.07755172 0.974784 102 102 102
0.21271093 0.81446004 -0.0020165443 0.51977605 0.2092462 0.7939441 144 144 144
0.21756577 0.813097 -0.0063762665 0.65682125 0.1992748 0.70045984 154 154 154
0.22242196 0.81083417 -0.01351738 0.81377214 0.047556214 0.54138607 120 120 120
