ply
format ascii 1.0
element vertex 627
property float x
property float y
property float z
property float nx
property float ny
property float nz
property uchar red
property uchar green
property uchar blue
end_header
-0.17572385 0.6276827 0.3667426 -0.4724701 0.67299086 0.56204015 117 117 117
-0.17114852 0.62848353 0.36918306 -0.37623513 0.6516619 0.65715015 122 122 122
-0.16655345 0.6290128 0.3708868 -0.31704754 0.6035896 0.7171306 120 120 120
-0.16195324 0.6294584 0.37236452 -0.30969176 0.6059441 0.72509164 121 121 121
-0.15735257 0.62987924 0.37377548 -0.28263956 0.66164213 0.6681697 121 121 121
-0.15275222 0.63028646 0.37514877 -0.23818193 0.7575946 0.5832604 113 113 113
-0.14815222 0.6306803 0.37648582 -0.14797032 0.8433362 0.5209114 124 124 124
-0.14352551 0.6307728 0.37700653 -0.020042863 0.9136572 0.3587325 132 132 132
-0.1388729 0.63058996 0.37678146 0.13081975 0.98864627 0.08125825 106 106 106
-0.13413735 0.6295614 0.37426472 0.18162069 0.97976243 -0.10213769 92 92 92
-0.12829821 0.61744165 0.34170294 -0.07322171 0.94631124 0.32866788 106 106 106
-0.12364863 0.61755323 0.34227705 -0.073828034 0.9411676 0.33847627 110 110 110
-0.11899802 0.617651 0.34281301 -0.07504068 0.93088037 0.3580931 123 123 123
-0.11433938 0.6176686 0.3431325 -0.075647004 0.92573667 0.3679015 133 133 133
-0.109697044 0.6178386 0.34386444 -0.14325406 0.87700003 0.44478208 134 134 134
-0.10506225 0.6180725 0.344769 -0.22003584 0.810478 0.54312676 130 130 130
-0.10045904 0.61858344 0.34642458 -0.33581835 0.6942962 0.6381051 140 140 140
-0.09586614 0.61916924 0.34828234 -0.3447897 0.6591983 0.6567745 144 144 144
-0.09127012 0.6197083 0.35001326 -0.34667394 0.6114841 0.68808097 140 140 140
-0.08666983 0.620193 0.3515973 -0.3677135 0.48328677 0.7763431 131 131 131
-0.082086354 0.62080455 0.35352373 -0.44191286 0.10233782 0.84166276 128 128 128
-0.077545166 0.6217482 0.35635042 -0.5302206 -0.35776734 0.7579819 110 110 110
-0.073064 0.6231539 0.36042738 -0.5450665 -0.3699617 0.7443977 111 111 111
-0.06857416 0.62444615 0.36419725 -0.5611978 -0.31056437 0.7494626 116 116 116
-0.064077765 0.62564754 0.36772013 -0.594416 -0.015842821 0.7702602 135 135 135
-0.05960402 0.6269901 0.37162495 -0.6012497 0.2400687 0.74724984 137 137 137
-0.055070907 0.627836 0.37418604 -0.44120967 0.5491062 0.6934268 143 143 143
-0.05051014 0.62844753 0.37611198 -0.22616433 0.7267582 0.64309204 153 153 153
-0.04588875 0.62858844 0.37676334 -0.2254237 0.7393872 0.6309457 161 161 161
-0.04126504 0.62870836 0.37735796 -0.20963384 0.7468982 0.62958896 177 177 177
-0.036694616 0.6292124 0.37899256 -0.37475383 0.67691994 0.6328575 150 150 150
-0.03215447 0.62992 0.38117838 -0.35882965 0.6919162 0.62916285 142 142 142
-0.02758646 0.63041186 0.38277912 -0.34378043 0.6867981 0.6399524 143 143 143
-0.02301994 0.6309006 0.38437223 -0.3595703 0.6792872 0.64130914 143 143 143
-0.018498749 0.6316891 0.38677597 -0.43622857 0.6548219 0.61119723 135 135 135
-0.013994813 0.6325743 0.3894415 -0.46720198 0.64494365 0.6041023 135 135 135
-0.009503752 0.63352346 0.39227962 -0.4673363 0.63745826 0.60644025 142 142 142
-0.0049925447 0.634315 0.39469147 -0.43696922 0.64219284 0.6233435 147 147 147
-0.0004670918 0.6349938 0.39679766 -0.37623513 0.6516619 0.65715015 156 156 156
0.00407964 0.63551855 0.3984866 -0.21616527 0.6407223 0.736568 169 169 169
0.008690029 0.6356244 0.3990426 -0.10617356 0.66335714 0.73642236 183 183 183
0.0133110285 0.6356611 0.39941168 0.011243043 0.6635486 0.74378103 210 210 210
0.017983168 0.6353786 0.39891672 0.16921444 0.65677863 0.73118114 215 215 215
0.022713125 0.634747 0.39747763 0.35289487 0.63085294 0.68503845 204 204 204
0.0274975 0.63379955 0.39518452 0.4902841 0.58519644 0.6256871 177 177 177
0.032341063 0.6325183 0.39198828 0.65372 0.51055706 0.52766037 158 158 158
0.037373602 0.6301434 0.38583374 0.8297038 0.4125131 0.35541928 125 125 125
0.04291174 0.6248512 0.37178993 0.94347215 0.27974203 0.1736642 130 130 130
0.04831651 0.62045217 0.36016273 0.71282774 0.52185404 0.46197882 163 163 163
0.05329755 0.61858535 0.3553853 0.6653853 0.5812003 0.46508142 179 179 179
0.05812353 0.617641 0.3531022 0.0062288824 0.7982191 0.5694999 196 196 196
0.06264171 0.61844754 0.35555506 -0.68996626 0.60098815 0.39794672 129 129 129
0.066993624 0.6201618 0.3604622 -0.7039372 0.6089082 0.36987823 121 121 121
0.07134557 0.62183976 0.3652711 -0.5249045 0.66119283 0.52125365 137 137 137
0.075835556 0.6227312 0.36795235 -0.47368276 0.6627036 0.581657 135 135 135
0.080361694 0.6234093 0.3700571 -0.46646133 0.6575727 0.59195596 133 133 133
0.08479452 0.62457156 0.3734703 -0.51728004 0.6785181 0.5245389 117 117 117
0.089279324 0.62543607 0.3760786 -0.3971588 0.67968357 0.61410683 132 132 132
0.09381488 0.6260178 0.37792206 -0.2757558 0.6663384 0.68360126 145 145 145
0.0984014 0.62632465 0.37902212 -0.19180702 0.66087496 0.72355545 143 143 143
0.10299948 0.6265662 0.37994528 -0.14618737 0.6431789 0.7484537 137 137 137
0.1076262 0.6266577 0.3804636 -0.029377082 0.6382267 0.76562077 154 154 154
0.112338215 0.62631917 0.37981892 0.35036132 0.3398971 0.8584264 167 167 167
0.11729041 0.62479186 0.37596083 0.54446715 -0.22876722 0.7854468 146 146 146
0.12219596 0.62352324 0.3728032 0.4616037 -0.19799213 0.8529081 159 159 159
0.12710917 0.6222415 0.36960983 0.6000636 -0.12668449 0.77342904 164 164 164
0.13213983 0.6204152 0.36494493 0.65748286 -0.066251926 0.73341036 159 159 159
0.13703588 0.61926794 0.36211586 -0.39381406 0.308743 0.82117295 193 193 193
0.1410071 0.6225352 0.37121677 -0.8798615 0.4433816 0.17185286 67 67 67
0.14537957 0.6238549 0.3750534 -0.16450082 0.82319635 0.53441447 107 107 107
0.15008864 0.62358046 0.37458277 0.35463014 0.7627343 0.5285268 132 132 132
0.1550025 0.62236404 0.37156677 0.71134645 0.496596 0.48627147 138 138 138
0.16046748 0.6186435 0.36178493 0.8143168 0.42745835 0.3497623 149 149 149
0.16562864 0.6163683 0.35590935 0.6077589 0.5951614 0.5064703 157 157 157
0.17062578 0.61487126 0.3521366 0.58287793 0.45341468 0.6563776 156 156 156
0.17554757 0.6137364 0.34934235 0.3753373 0.19394998 0.83987874 159 159 159
0.18035528 0.61312604 0.34796524 -0.123983115 -0.26534384 0.91936505 131 131 131
0.18498394 0.61331224 0.34874058 -0.1688507 -0.40626213 0.88659376 119 119 119
0.18960574 0.61352515 0.34958744 -0.04576681 -0.3545806 0.9275765 134 134 134
0.19372734 0.6158943 0.35625935 -0.3826316 -0.7230351 0.5441964 90 90 90
0.19814506 0.6169567 0.35940027 -0.29793894 -0.6362787 0.6952742 114 114 114
0.20265743 0.61759996 0.36140966 -0.2231687 -0.6024464 0.7552681 131 131 131
0.2072238 0.6180053 0.3627758 -0.19266732 -0.5902265 0.7698335 128 128 128
0.21181408 0.6183047 0.36385584 -0.09569925 -0.4847642 0.84994835 141 141 141
0.21647575 0.61830306 0.36412287 0.0016718111 -0.35684577 0.92304945 158 158 158
0.22119996 0.6180446 0.36369658 -0.014593859 -0.3049338 0.9304523 150 150 150
0.22584996 0.618093 0.36409903 0.078122914 -0.25798684 0.9545316 143 143 143
0.23057678 0.6178298 0.36365986 0.26739398 -0.09346229 0.93962085 154 154 154
0.23561159 0.6163335 0.3598914 0.80025226 0.07334453 0.58339125 151 151 151
0.2408292 0.6141317 0.35421705 -0.21335723 0.10316814 0.8311402 160 160 160
0.2452564 0.61509037 0.3570776 -0.64023525 -0.037915383 0.74958104 179 179 179
0.2494565 0.6169262 0.36230612 -0.7624397 -0.26323566 0.57369304 141 141 141
0.2535887 0.6189995 0.3681755 -0.5919369 0.20825839 0.7248722 142 142 142
0.2580479 0.6197772 0.37054634 -0.34591487 0.47537953 0.8049022 125 125 125
0.26259795 0.6201947 0.3719449 -0.23350166 0.57567006 0.7640985 136 136 136
0.26716056 0.6205585 0.37319803 -0.21670254 0.6107808 0.7459196 136 136 136
0.27178958 0.62066555 0.37375832 0.0016653624 0.623307 0.77225894 165 165 165
0.2765552 0.6202581 0.37293005 0.279279 0.5975345 0.7320032 182 182 182
0.28140107 0.6195574 0.37131023 0.40397143 0.65944964 0.621661 175 175 175
0.28636172 0.6184418 0.36856985 0.4574733 0.708621 0.5190499 169 169 169
0.29132548 0.61733055 0.36584234 0.37439567 0.79128 0.46318704 158 158 158
0.29615495 0.6167252 0.3644805 0.04651131 0.83336806 0.5527927 160 160 160
0.30080584 0.61677575 0.36488914 0.060213562 0.81047726 0.5855371 180 180 180
0.3055891 0.61634946 0.36400986 0.21468514 0.72324973 0.6308741 190 190 190
0.31046638 0.6155925 0.36223936 0.40227214 0.7431567 0.5212051 170 170 170
0.3154572 0.6144433 0.3594098 0.48688546 0.7526103 0.42477542 156 156 156
0.32062754 0.6126759 0.3549137 0.6284429 0.74524754 0.17252766 154 154 154
0.328913 0.60001826 0.32103443 -0.19761242 0.6589806 0.690845 204 204 204
0.33345285 0.6005659 0.32278538 -0.36428276 0.5885423 0.71886295 183 183 183
0.33793923 0.60129094 0.32501507 -0.36502337 0.57591325 0.73100924 189 189 189
0.34249863 0.6017561 0.32654285 -0.10650744 0.6161031 0.74297935 214 214 214
0.34733096 0.60128355 0.3255415 0.41018364 0.626719 0.64878213 208 208 208
0.35244295 0.5998695 0.32200098 0.52146083 0.57776207 0.62998736 184 184 184
0.3570911 0.60003614 0.32272387 -0.7148434 0.40216032 0.54927844 119 119 119
0.3611962 0.60201764 0.32834244 -0.8263234 0.33175766 0.44902235 96 96 96
0.36530885 0.60394883 0.33382463 -0.77517074 0.35806626 0.50988245 97 97 97
0.36951634 0.6055424 0.3383956 -0.68589234 0.41392004 0.5885932 106 106 106
0.37385294 0.60669184 0.34176826 -0.52008986 0.48675376 0.6997538 134 134 134
0.3783249 0.60738564 0.3439126 -0.37399474 0.5408153 0.74967873 149 149 149
0.38286766 0.60784125 0.34541368 -0.29639244 0.5605972 0.7648497 154 154 154
0.38741973 0.60826135 0.3468194 -0.20313458 0.5804046 0.7810018 158 158 158
0.3920687 0.608366 0.34737444 -0.038820446 0.6054705 0.79176074 168 168 168
0.3968291 0.6081152 0.34697056 0.23089637 0.60448307 0.7514712 186 186 186
0.40173563 0.6074052 0.3453288 0.46390346 0.5669253 0.6709195 174 174 174
0.40688083 0.6059532 0.3416872 0.6440042 0.5199112 0.5570518 157 157 157
0.41225854 0.6037924 0.33613443 0.7202525 0.49941066 0.46948314 146 146 146
0.41767487 0.60153747 0.330328 0.73732406 0.492411 0.44805282 140 140 140
0.42317817 0.59904075 0.32387114 0.6790223 0.5260263 0.4997069 156 156 156
0.42839828 0.59744287 0.3198371 0.58772475 0.551645 0.57648593 167 167 167
0.43361327 0.59587955 0.315897 0.58711845 0.5465013 0.58629435 169 169 169
0.43872133 0.59465885 0.312881 0.4012775 0.6239043 0.66557044 185 185 185
0.44369707 0.5938518 0.31097937 0.38515 0.6262205 0.6720598 182 182 182
0.44865957 0.59309363 0.3092103 0.38454366 0.6210769 0.6818682 178 178 178
0.45369992 0.59211206 0.30683947 0.45856628 0.6197704 0.6293141 182 182 182
0.4588429 0.5908377 0.30367947 0.50816154 0.62310904 0.5902293 170 170 170
0.46399906 0.5895386 0.3004532 0.525636 0.6385655 0.5617852 154 154 154
0.46920386 0.5881119 0.29688358 0.5683476 0.6372079 0.50726885 147 147 147
0.474512 0.58640003 0.29254484 0.58494717 0.63255 0.49330902 158 158 158
0.4798201 0.5847075 0.2882595 0.5666629 0.6292624 0.5343562 162 162 162
0.48500922 0.5833764 0.28494835 0.4822529 0.60249615 0.6279912 169 169 169
0.4900954 0.5823555 0.2824731 0.38265944 0.5733627 0.7131746 172 172 172
0.4951 0.5815785 0.28065538 0.3412296 0.5602097 0.7476174 168 168 168
0.50008655 0.5808611 0.2789979 0.3327955 0.5550533 0.75693524 162 162 162
0.50507665 0.58014154 0.27733564 0.33218917 0.5499096 0.76674366 167 167 167
0.5100757 0.57940483 0.27562666 0.3879966 0.5205176 0.75477993 180 180 180
0.5151392 0.5784962 0.27345514 0.43563864 0.50093997 0.7474583 186 186 186
0.5202695 0.5774121 0.2708106 0.50183344 0.4996207 0.69441366 190 190 190
0.52553785 0.5759585 0.26717138 0.65972877 0.49513888 0.5575762 165 165 165
0.53107643 0.5737779 0.26157475 0.73550516 0.47698006 0.47747806 149 149 149
0.5367601 0.57122445 0.2549734 0.7175586 0.4638653 0.5133926 162 162 162
0.5422585 0.569201 0.24980116 0.5419854 0.4702032 0.6814688 187 187 187
0.5473671 0.5682521 0.24752283 0.22208157 0.37105578 0.89819473 193 193 193
0.5522796 0.5678406 0.24669123 0.1902985 0.37334645 0.9037029 198 198 198
0.55719185 0.5674341 0.24587393 0.19913554 0.400959 0.88737136 201 201 201
0.562173 0.5668485 0.24457455 0.2319279 0.4262681 0.865041 196 196 196
0.5671227 0.56635237 0.24351597 0.20068207 0.4585003 0.86119753 185 185 185
0.5720571 0.5659013 0.24257898 0.24231148 0.511422 0.82253563 192 192 192
0.5770726 0.56524205 0.24108171 0.36106035 0.6210386 0.68039644 191 191 191
0.58225083 0.56416583 0.23846102 0.54317963 0.6292241 0.5328844 148 148 148
0.5878291 0.5620613 0.23307323 0.8221446 0.4274711 0.35025287 132 132 132
0.59925365 0.5448811 0.18709898 0.55986285 0.50811577 0.646011 175 175 175
0.60458577 0.54352593 0.1837306 0.42011744 0.50839984 0.7441392 183 183 183
0.6096697 0.5428183 0.18210602 0.28226003 0.49931693 0.81238544 187 187 187
0.61469233 0.54227376 0.1809206 0.2179532 0.49126926 0.8355481 184 184 184
0.6196965 0.54178166 0.17987537 0.19399789 0.4935727 0.8415469 177 177 177
0.6246613 0.5413935 0.17911148 0.17887962 0.5234887 0.8312141 168 168 168
0.6296462 0.5409584 0.17822075 0.18744802 0.5361305 0.8195583 166 166 166
0.63464546 0.5404918 0.17724514 0.20384419 0.54878503 0.8083932 165 165 165
0.6396359 0.5400522 0.17634201 0.24419568 0.55913615 0.79122925 162 162 162
0.6446514 0.5395546 0.17528391 0.3005404 0.5596857 0.7699139 162 162 162
0.6497847 0.5387721 0.1734581 0.397912 0.5509321 0.7211695 158 158 158
0.6550958 0.5375612 0.17047977 0.56715333 0.47818702 0.6558532 147 147 147
0.6607033 0.5356395 0.16558981 0.7380832 0.3563064 0.56487405 128 128 128
0.6665523 0.53314996 0.15917301 0.73619896 0.3085922 0.59618044 138 138 138
0.6722779 0.53098154 0.15361929 0.6861969 0.33987853 0.6408546 148 148 148
0.67791986 0.5290344 0.14866161 0.58841854 0.3832571 0.69518834 156 156 156
0.6834061 0.5274775 0.14475536 0.44313252 0.45369872 0.7545059 166 166 166
0.688565 0.5267148 0.14298487 0.29926252 0.5171151 0.7914119 172 172 172
0.69360256 0.52624655 0.14200735 0.13406587 0.58609706 0.79228836 173 173 173
0.69851875 0.52606916 0.14181232 0.047891337 0.61075455 0.78734875 175 175 175
0.70340526 0.52596307 0.14180899 -0.12797222 0.67126435 0.7078633 156 156 156
0.70795786 0.5266392 0.14390945 -0.31746888 0.72986716 0.59517676 141 141 141
0.71263325 0.5270233 0.1452241 -0.11751958 0.7316203 0.66490114 143 143 143
0.7174479 0.527081 0.14566183 -0.054628793 0.74669325 0.66414994 135 135 135
0.7222949 0.52706385 0.14589739 -0.030673418 0.7443898 0.6581512 131 131 131
0.727121 0.52709484 0.14626265 -0.0071901116 0.7444281 0.65962297 132 132 132
0.7320442 0.5269036 0.14603043 0.101389386 0.717007 0.6833132 133 133 133
0.7370596 0.5265045 0.1452384 0.21003793 0.664788 0.7065467 134 134 134
0.74219894 0.5258274 0.14369965 0.40040255 0.6037899 0.68005466 150 150 150
0.74778366 0.52415085 0.13947439 0.79064476 0.35308003 0.47862837 141 141 141
-0.38480353 0.5938175 0.27622843 -0.7802103 0.6189606 0.08193946 46 46 46
-0.3800928 0.59708667 0.2853589 -0.63621044 0.75678277 0.16311662 63 63 63
-0.37539777 0.5991039 0.29109812 -0.61751246 0.74795514 0.24117444 66 66 66
-0.37071052 0.6010344 0.29660082 -0.58869576 0.7522295 0.28282717 66 66 66
-0.3660302 0.6026006 0.30111647 -0.5542079 0.7509127 0.35952827 74 74 74
-0.3613554 0.60402465 0.30524683 -0.5247848 0.76033074 0.39137256 74 74 74
-0.3566848 0.6052065 0.3087206 -0.48706195 0.7674198 0.41623694 76 76 76
-0.35201812 0.60630083 0.31195736 -0.4571669 0.774496 0.44061077 78 78 78
-0.34735352 0.60715675 0.31454802 -0.4030479 0.79423964 0.45430997 81 81 81
-0.34269124 0.60793686 0.31693316 -0.34906322 0.8064978 0.4703471 81 81 81
-0.33803016 0.6085737 0.31892967 -0.31856188 0.8187178 0.4849125 81 81 81
-0.33337092 0.6091714 0.3208208 -0.30290633 0.8187433 0.48589367 83 83 83
-0.32871288 0.60970736 0.3225441 -0.28050134 0.81597966 0.50464433 80 80 80
-0.3240558 0.61018205 0.32410097 -0.2653178 0.8183469 0.513096 83 83 83
-0.31940088 0.61067605 0.32571077 -0.25809637 0.81321603 0.52339494 86 86 86
-0.31474882 0.61121535 0.32744312 -0.25148124 0.8029415 0.54350233 83 83 83
-0.3100958 0.6116307 0.32883883 -0.24365346 0.80295426 0.54399294 82 82 82
-0.30544406 0.612036 0.33020782 -0.22786362 0.8104652 0.54263616 93 93 93
-0.30079338 0.61242366 0.33152914 -0.2128144 0.805347 0.5534257 98 98 98
-0.29614228 0.61275005 0.33268452 -0.19776517 0.80022895 0.5642153 103 103 103
-0.29149234 0.61307335 0.3338313 -0.18258165 0.8025962 0.572667 109 109 109
-0.28684318 0.61338353 0.33494234 -0.16706042 0.7951364 0.575986 110 110 110
-0.2821911 0.6135802 0.3357463 -0.14404914 0.7975164 0.5849283 109 109 109
-0.277538 0.6137302 0.3364234 -0.12899992 0.7923983 0.59571785 108 108 108
-0.272885 0.6138699 0.33707333 -0.10612293 0.7872929 0.606998 105 105 105
-0.26822972 0.61394095 0.3375368 -0.076024495 0.77705663 0.6285772 110 110 110
-0.26357245 0.61396146 0.33786345 -0.045454063 0.76447874 0.6426858 128 128 128
-0.2589131 0.613935 0.33806324 -0.014749251 0.75938606 0.6544565 139 139 139
-0.25424916 0.61381364 0.33800602 0.0006376582 0.74444085 0.6601135 141 141 141
-0.24958536 0.61370444 0.33798218 -0.016230527 0.734128 0.6787492 137 137 137
-0.24492675 0.6137066 0.3382597 -0.040454473 0.7214607 0.68942374 144 144 144
-0.2402692 0.61372876 0.3385911 -0.041060798 0.71631706 0.69923216 145 145 145
-0.2356103 0.61372614 0.3388548 -0.025405258 0.71634257 0.7002133 156 156 156
-0.23095122 0.61372066 0.3391118 -0.0020562673 0.7088955 0.704023 174 174 174
-0.22628546 0.61360216 0.3390627 0.02216768 0.7215628 0.6933484 184 184 184
-0.22160967 0.6133261 0.3385868 0.030601773 0.7267192 0.6840306 179 179 179
-0.2169331 0.6130545 0.3381238 0.03903586 0.7318756 0.6747127 173 173 173
-0.21226786 0.6129761 0.33818293 -0.014277244 0.7570444 0.646986 164 164 164
-0.2076097 0.61300945 0.33854437 -0.09829516 0.78730565 0.6074886 155 155 155
-0.20296462 0.61323166 0.33941746 -0.20768055 0.7698145 0.5978258 145 145 145
-0.1983603 0.6140237 0.34183073 -0.6618358 0.65948814 0.32374582 110 110 110
-0.19402131 0.6184542 0.35408688 -0.7047577 0.65564847 0.25636253 95 95 95
-0.18950687 0.62028503 0.35931015 -0.6497529 0.6609351 0.38169628 100 100 100
-0.18498662 0.6219473 0.3640766 -0.6084466 0.63203126 0.47571012 103 103 103
-0.18043745 0.6231568 0.36761808 -0.5274641 0.6331329 0.5628252 110 110 110
-0.1758612 0.6239691 0.37008572 -0.41617984 0.60668576 0.6687247 124 124 124
-0.17126703 0.6245241 0.3718567 -0.320885 0.5329591 0.7802001 136 136 136
-0.16665684 0.62486243 0.3730421 -0.29280514 0.4675233 0.8354236 140 140 140
-0.1620587 0.6253269 0.374568 -0.3519927 0.51559556 0.77544314 137 137 137
-0.1574802 0.6259961 0.37664747 -0.38135052 0.5384608 0.7417177 132 132 132
-0.15291157 0.62674737 0.37894917 -0.37399474 0.5408153 0.74967873 134 134 134
-0.148325 0.6272707 0.38063383 -0.2854678 0.6186114 0.7144171 143 143 143
-0.14372681 0.6276479 0.38192415 -0.20611559 0.6786221 0.7006196 158 158 158
-0.13910621 0.62777495 0.3825369 -0.107738525 0.7545495 0.63362855 166 166 166
-0.1344744 0.6277814 0.3828249 -0.015638832 0.8309242 0.54139763 171 171 171
-0.12982732 0.6276336 0.3826952 0.072474346 0.92083555 0.38703096 159 159 159
-0.12515709 0.6272621 0.3819604 0.10316828 0.95031434 0.27268293 143 143 143
-0.12050176 0.62705016 0.3816576 0.1275956 0.9456692 0.2592137 139 139 139
-0.11584768 0.62685776 0.38140726 0.10808791 0.9666656 0.19375893 134 134 134
-0.111144155 0.626209 0.37992382 0.18075274 0.98215777 0.037040867 102 102 102
-0.10531089 0.6151717 0.35036182 -0.06323728 0.95192784 0.29460064 121 121 121
-0.10066375 0.6152594 0.35086966 -0.13719083 0.9284365 0.34669796 124 124 124
-0.09607673 0.61587954 0.35281706 -0.18023624 0.88254005 0.40777135 125 125 125
-0.09148249 0.6164155 0.3545375 -0.19892341 0.85679626 0.45583224 140 140 140
-0.08686039 0.6166947 0.3555622 -0.16734369 0.87181807 0.45311874 146 146 146
-0.08223945 0.6169746 0.35659027 -0.12807053 0.87936723 0.45323372 145 145 145
-0.07758385 0.61695695 0.3568139 -0.18000361 0.6819225 0.66006297 164 164 164
-0.072966486 0.6172538 0.3578868 -0.4029812 0.17679526 0.8454859 164 164 164
-0.06843224 0.6182127 0.36074877 -0.54804426 -0.19215329 0.7872853 136 136 136
-0.06395325 0.6195824 0.36472034 -0.63840103 -0.25080895 0.7258535 122 122 122
-0.05955127 0.6215141 0.37021017 -0.72714597 -0.21964009 0.63636667 116 116 116
-0.055178344 0.62361336 0.37615156 -0.67292315 0.26423797 0.6363327 134 134 134
-0.05068347 0.6247239 0.37942266 -0.40613016 0.6445856 0.6327763 146 146 146
-0.046115667 0.6252563 0.38113117 -0.19532524 0.72915095 0.6525248 166 166 166
-0.041484058 0.62530255 0.381526 -0.094170585 0.72417325 0.66871077 178 178 178
-0.036872506 0.62549376 0.38231277 -0.32090345 0.6816927 0.65123254 150 150 150
-0.032348156 0.62630653 0.38477802 -0.39803377 0.65956914 0.6285911 138 138 138
-0.027778 0.6267729 0.38630772 -0.32137546 0.68403447 0.658703 144 144 144
-0.023226708 0.6273587 0.38815975 -0.37488815 0.66943455 0.63519543 137 137 137
-0.01870668 0.62814474 0.390553 -0.45201844 0.6473109 0.61255395 135 135 135
-0.014200062 0.6290021 0.39313793 -0.47502974 0.6449309 0.6036117 133 133 133
-0.009706765 0.6299269 0.3959055 -0.46720198 0.64494365 0.6041023 136 136 136
-0.0051843524 0.63063526 0.39808798 -0.39877442 0.6469401 0.6407374 146 146 146
-0.0006557107 0.6312854 0.40011263 -0.33081883 0.6512783 0.68484306 152 152 152
0.00391531 0.63164496 0.40135336 -0.21495263 0.65100956 0.71695113 163 163 163
0.008505583 0.6318729 0.4022379 -0.09051802 0.66338265 0.7374035 183 183 183
0.0131329 0.6318617 0.40247726 0.011849362 0.6686922 0.7339726 205 205 205
0.017796665 0.631623 0.40210295 0.161993 0.66190946 0.7208822 213 213 213
0.022497237 0.6311636 0.4011321 0.29803142 0.65556145 0.68206114 207 207 207
0.02727449 0.63024807 0.3989296 0.49898678 0.6053236 0.61169344 177 177 177
0.032118827 0.6289494 0.3956933 0.6203175 0.53718543 0.5583747 159 159 159
0.037137836 0.6266403 0.38972998 0.82849115 0.40222582 0.3750361 132 132 132
0.042517185 0.62226176 0.37818146 0.94347215 0.27974203 0.1736642 126 126 126
0.048071712 0.61696124 0.3641448 0.704528 0.524183 0.46895874 162 162 162
0.053020686 0.61526465 0.35983706 0.67233807 0.5610987 0.48005623 175 175 175
0.057897598 0.6140156 0.3567376 -0.06756817 0.57639825 0.7496513 208 208 208
0.062412262 0.6148348 0.35921955 -0.6733521 0.5046777 0.51153004 134 134 134
0.06668982 0.6169579 0.36522055 -0.7519092 0.52415067 0.3851813 113 113 113
0.07109156 0.61835146 0.36925268 -0.4823855 0.6425764 0.5956506 145 145 145
0.075635314 0.6189413 0.3711152 -0.46706766 0.65242904 0.6017644 141 141 141
0.08008635 0.6200197 0.3742957 -0.56235874 0.6690746 0.49171343 115 115 115
0.08452001 0.62116885 0.37766743 -0.4497965 0.685198 0.576115 124 124 124
0.08903837 0.6218469 0.37976742 -0.3590983 0.67694545 0.63383865 138 138 138
0.093586355 0.6223562 0.3814125 -0.23756097 0.67108566 0.70099515 146 146 146
0.09818354 0.62260056 0.38234186 -0.19194134 0.6533896 0.7258934 147 147 147
0.102788866 0.6227982 0.3831458 -0.0932772 0.595554 0.7831941 161 161 161
0.10748115 0.62255025 0.38274717 0.24570301 0.3214983 0.898753 177 177 177
0.1122731 0.6218052 0.38100815 0.5918982 -0.11687011 0.778071 146 146 146
0.11758059 0.61850333 0.37237215 0.30411193 -0.30772623 0.8608863 159 159 159
0.122291595 0.61821103 0.3718543 0.18059793 0.15437606 0.938792 184 184 184
0.12716421 0.61713314 0.36921835 0.5916796 0.1287669 0.77516806 180 180 180
0.13215426 0.6155064 0.3651018 0.43302518 0.26935336 0.79518425 180 180 180
0.13688365 0.6151619 0.36444426 -0.40732756 0.40597382 0.65809083 187 187 187
0.1406031 0.6196308 0.3767681 -0.842745 0.44532695 0.20652565 75 75 75
0.14502576 0.620702 0.37992764 -0.24210311 0.8034144 0.51924354 107 107 107
0.14970323 0.62056327 0.37982416 0.30880713 0.79774284 0.50642323 113 113 113
0.15469643 0.61896443 0.37578344 0.6265004 0.6877598 0.33040953 125 125 125
0.1599864 0.6160307 0.36814356 0.7481036 0.57751125 0.27383938 146 146 146
0.16520724 0.61346316 0.36149216 0.6074065 0.696641 0.38405976 155 155 155
0.17029694 0.611532 0.35655642 0.76518977 0.47885904 0.3799522 142 142 142
0.17552665 0.6090076 0.35002232 0.63747656 0.35665426 0.66545516 154 154 154
0.18039724 0.6081195 0.34789944 0.20629555 0.30646375 0.9009759 168 168 168
0.18510666 0.6079552 0.34772968 0.101437666 0.24829628 0.9455216 160 160 160
0.18980286 0.60785174 0.34772253 0.07817677 -0.05446016 0.94837725 146 146 146
0.19452408 0.6076417 0.3474288 0.1122046 -0.36135054 0.9149766 134 134 134
0.19925532 0.6073923 0.34702826 -0.1457007 -0.5901499 0.772777 115 115 115
0.2037948 0.60796285 0.3488388 -0.21311462 -0.75829965 0.59889865 101 101 101
0.20802048 0.609849 0.35419464 -0.31076184 -0.7870266 0.5276246 97 97 97
0.21232793 0.61136293 0.35854673 -0.25157866 -0.64134574 0.7080261 129 129 129
0.21687886 0.61184096 0.36010742 -0.17863117 -0.56586325 0.7960208 142 142 142
0.22144929 0.6122315 0.3614316 -0.11115142 -0.5021022 0.8461725 150 150 150
0.22610101 0.6122837 0.36184406 0.012538807 -0.44527707 0.8773468 151 151 151
0.23084506 0.6119604 0.36124468 0.18846053 -0.49601337 0.83025676 140 140 140
0.23593739 0.6102407 0.3568821 0.44123688 -0.5621066 0.6857897 141 141 141
0.24072024 0.6097834 0.35592175 -0.3813859 0.18620048 0.87683964 204 204 204
0.24520686 0.6105075 0.35814524 -0.55610585 0.28179553 0.77819407 199 199 199
0.24963793 0.61143947 0.36092806 -0.6005015 0.13853547 0.7379523 200 200 200
0.25364938 0.613996 0.3680873 -0.82203406 -0.1805384 0.51930195 110 110 110
0.25791648 0.6155238 0.37247515 -0.48727527 0.30624813 0.8078155 145 145 145
0.26241818 0.6161268 0.37437105 -0.38592485 0.39812016 0.81835794 141 141 141
0.26692012 0.6167197 0.37623978 -0.2841024 0.48765045 0.8214299 150 150 150
0.27157626 0.61671996 0.37651157 -0.018161576 0.50539696 0.8409043 174 174 174
0.27630368 0.616452 0.3760605 0.21100041 0.5113709 0.82057333 184 184 184
0.28114924 0.61574626 0.37443113 0.29305032 0.54984576 0.76429075 173 173 173
0.2860023 0.6150229 0.37275457 0.30484992 0.62797445 0.6993739 193 193 193
0.2908438 0.6143527 0.3712206 0.3269026 0.7266905 0.5957139 187 187 187
0.29570982 0.61360216 0.3694706 0.21751337 0.7662805 0.58462673 184 184 184
0.30043927 0.613358 0.3690853 0.17413028 0.73021114 0.6508327 205 205 205
0.30523178 0.61289024 0.36809683 0.2582172 0.6751519 0.6898734 197 197 197
0.3100814 0.6122241 0.36657476 0.29181927 0.68829215 0.65494 184 184 184
0.31500277 0.61131215 0.36439085 0.37602586 0.7323709 0.5640996 178 178 178
0.31992623 0.6104052 0.3622203 0.43816522 0.76938605 0.44937602 165 165 165
0.3251219 0.60855484 0.3575101 0.66258603 0.73124814 0.12966701 150 150 150
0.33319852 0.59668326 0.32581902 -0.30672923 0.6564602 0.67650634 191 191 191
0.33769646 0.5973656 0.3279295 -0.34039652 0.6110367 0.7133209 186 186 186
0.3422185 0.5979564 0.32979345 -0.2474073 0.61587334 0.73414886 202 202 202
0.34700528 0.5976341 0.3291993 0.3385863 0.6486001 0.6621026 210 210 210
0.35211012 0.5962362 0.32570982 0.57112515 0.5563029 0.59044576 181 181 181
0.35689113 0.5959494 0.32521057 -0.6406104 0.40605107 0.618624 129 129 129
0.36100867 0.59789014 0.3307085 -0.82706404 0.31912863 0.46116868 96 96 96
0.36508307 0.59995055 0.33652735 -0.80607504 0.32339022 0.50233084 96 96 96
0.3692908 0.6015432 0.34108734 -0.70134455 0.396582 0.5848174 104 104 104
0.37362102 0.60271287 0.34450865 -0.550457 0.48201925 0.68285054 125 125 125
0.37808296 0.6034374 0.34673166 -0.40436184 0.5360808 0.73277545 147 147 147
0.38260773 0.6039493 0.348382 -0.29699877 0.55545354 0.7746581 160 160 160
0.3871759 0.60431504 0.34963846 -0.211703 0.5677628 0.79265755 166 166 166
0.39182845 0.6044049 0.35015345 -0.07836229 0.58295053 0.79632163 171 171 171
0.3965266 0.6043489 0.35027504 0.10288908 0.5935314 0.7879881 190 190 190
0.4014351 0.6036267 0.34860468 0.42321432 0.5664013 0.693216 178 178 178
0.40653804 0.6023011 0.3453107 0.61910486 0.52689815 0.57799155 153 153 153
0.41182938 0.6004014 0.3404727 0.70318097 0.5064103 0.49091345 146 146 146
0.41723868 0.5981574 0.33470774 0.73685205 0.49475273 0.4555233 140 140 140
0.42275175 0.5956192 0.32815266 0.69562185 0.5213683 0.48574704 146 146 146
0.4280441 0.5937896 0.32350445 0.60445863 0.5544724 0.56018823 162 162 162
0.43324658 0.5922568 0.31965446 0.555132 0.5661045 0.5945972 175 175 175
0.43835524 0.59102654 0.31661987 0.4418324 0.61694294 0.6456119 186 186 186
0.4433585 0.5901296 0.31448126 0.39297774 0.6262333 0.6725504 182 182 182
0.44832936 0.58934045 0.31263256 0.40053686 0.6112753 0.6777168 178 178 178
0.45334718 0.5884199 0.31043148 0.4486509 0.5893559 0.6629246 180 180 180
0.45844898 0.5872607 0.3075881 0.5065459 0.59036565 0.61685985 167 167 167
0.46358088 0.5860257 0.3045411 0.5080272 0.61562365 0.5925672 156 156 156
0.46874353 0.5847144 0.30128908 0.526108 0.63622373 0.55431473 150 150 150
0.4739839 0.5831907 0.29746675 0.60937446 0.62790483 0.47983977 158 158 158
0.47932878 0.58138084 0.2928748 0.5926406 0.62507737 0.4961375 160 160 160
0.4846036 0.5797932 0.2888813 0.5407543 0.6086495 0.57211804 164 164 164
0.48977515 0.5785198 0.28573275 0.44878522 0.5968413 0.6605867 170 170 170
0.49482235 0.577616 0.28357744 0.35735714 0.55789346 0.7411281 173 173 173
0.49980775 0.5768974 0.2819214 0.34892303 0.55273706 0.7504459 167 167 167
0.50481355 0.5761287 0.28013086 0.35648218 0.5377791 0.7556123 175 175 175
0.5098314 0.575335 0.27827263 0.387256 0.5078886 0.7669263 169 169 169
0.51490057 0.5744066 0.27605247 0.43537 0.48596922 0.75213414 174 174 174
0.5200033 0.57339454 0.27360773 0.47592482 0.47900784 0.7321755 169 169 169
0.52519345 0.57215166 0.2705431 0.6007554 0.4913273 0.6209198 160 160 160
0.53059137 0.57035017 0.2659769 0.7187712 0.47415262 0.49377578 153 153 153
0.5364033 0.56743455 0.25841713 0.7600015 0.44753698 0.46355206 162 162 162
0.5419543 0.5652602 0.25285006 0.60136175 0.4964709 0.6111114 184 184 184
0.5471475 0.5640774 0.24994755 0.41168332 0.50324345 0.75345707 193 193 193
0.5521698 0.56336737 0.24831629 0.23962134 0.4187955 0.8678695 197 197 197
0.5570984 0.5629158 0.24738026 0.20656037 0.37851563 0.89487565 194 194 194
0.562027 0.562469 0.2464571 0.19812626 0.37335923 0.9041935 186 186 186
0.566936 0.5620785 0.24568558 0.15209986 0.4256803 0.8848846 177 177 177
0.5718336 0.5617225 0.24500608 0.18516085 0.46596014 0.85787845 179 179 179
0.57676864 0.5612719 0.24407244 0.26687312 0.5142622 0.8067285 186 186 186
0.581805 0.5605612 0.2424407 0.4545944 0.54165447 0.6947216 173 173 173
0.5872525 0.55878806 0.23795462 0.79273236 0.3834817 0.4445273 139 139 139
0.5989127 0.5409584 0.19033003 0.6007554 0.4913273 0.6209198 172 172 172
0.60427904 0.5395088 0.18671608 0.45271018 0.4939403 0.72602797 178 178 178
0.60943365 0.5386162 0.18459797 0.34616384 0.48490846 0.7962365 178 178 178
0.6144831 0.5380006 0.18322372 0.22490603 0.47116762 0.85052294 185 185 185
0.61947083 0.5375476 0.1822877 0.17746739 0.47343278 0.85504997 182 182 182
0.624413 0.5372138 0.18167162 0.16221482 0.49586338 0.8470551 172 172 172
0.6293647 0.5368595 0.18099976 0.16308977 0.5159778 0.83257085 165 165 165
0.6343279 0.5364802 0.18026114 0.17962025 0.53611773 0.8190677 165 165 165
0.6393231 0.5360246 0.17931795 0.19601643 0.5487723 0.8079026 164 164 164
0.6443373 0.5355265 0.1782608 0.26788238 0.54186195 0.7899063 165 165 165
0.6494411 0.534812 0.17662239 0.41242394 0.5158724 0.7413107 165 165 165
0.6547301 0.53365064 0.17378378 0.56567204 0.45292896 0.68014586 150 150 150
0.660401 0.5315671 0.1684699 0.7617046 0.30674893 0.5654323 123 123 123
0.666391 0.52872753 0.16112566 0.7435585 0.25386557 0.6055659 135 135 135
0.6720691 0.526669 0.15587997 0.6690601 0.31459495 0.6641661 151 151 151
0.67765844 0.52484345 0.15125942 0.5963806 0.39075524 0.693341 159 159 159
0.68307483 0.5234492 0.14779806 0.4440075 0.47381312 0.74002165 166 166 166
0.6882818 0.5225673 0.1457119 0.26018894 0.5493346 0.78707784 172 172 172
0.69325185 0.5222564 0.14515924 0.14945278 0.57115185 0.7979454 173 173 173
0.69817924 0.5220492 0.14488506 0.06327824 0.5958093 0.7930057 167 167 167
0.702932 0.5222552 0.14571953 -0.39702448 0.6871689 0.61176896 132 132 132
0.7074404 0.5230317 0.14808655 -0.31881586 0.7120944 0.6171315 142 142 142
0.71218324 0.5232544 0.14896631 -0.11812589 0.72647667 0.67470956 142 142 142
0.71692824 0.5234709 0.14982843 -0.07115928 0.72655326 0.677653 140 140 140
0.7217654 0.5234716 0.15011215 -0.047541663 0.734077 0.67678684 139 139 139
0.72663116 0.523407 0.15022087 0.029861135 0.71409017 0.6961769 138 138 138
0.73159575 0.5231161 0.1497221 0.14586546 0.6642257 0.7273715 137 137 137
0.7366289 0.5226722 0.1488123 0.25572664 0.62229407 0.7309882 136 136 136
0.741812 0.5218909 0.14699793 0.40648043 0.56357384 0.7095137 144 144 144
0.74748135 0.5200167 0.14225054 0.86791766 0.13185474 0.37993523 130 130 130
-0.38486588 0.59215 0.2852645 -0.7766959 0.60776573 0.15154566 56 56 56
-0.38016343 0.5947566 0.29258585 -0.66528493 0.7029663 0.25225845 67 67 67
-0.37547264 0.59672236 0.29817343 -0.6216224 0.71943504 0.3074954 69 69 69
-0.37078965 0.59823155 0.30252647 -0.5780941 0.72841835 0.36507025 73 73 73
-0.36611223 0.5995829 0.30645323 -0.55723953 0.7251945 0.40857032 76 76 76
-0.36144003 0.60096526 0.31046247 -0.518776 0.7449126 0.42128837 75 75 75
-0.3567719 0.6021011 0.31380558 -0.4962367 0.7496344 0.43770108 76 76 76
-0.35210764 0.6031828 0.31700182 -0.4585139 0.7567234 0.46256548 81 81 81
-0.34744605 0.6040957 0.31974173 -0.38907704 0.7863196 0.48237845 84 84 84
-0.34278572 0.6048069 0.32193565 -0.35810363 0.7961978 0.48947334 83 83 83
-0.33812758 0.6054783 0.3240223 -0.3113404 0.8135869 0.4952115 84 84 84
-0.33347097 0.6060808 0.32592297 -0.29615688 0.8159541 0.5036632 87 87 87
-0.32881454 0.606555 0.32747602 -0.28050134 0.81597966 0.50464433 84 84 84
-0.32415935 0.60700107 0.32895327 -0.26545212 0.8108615 0.51543385 83 83 83
-0.31950632 0.60747004 0.33049202 -0.25026858 0.8132288 0.52388555 85 85 85
-0.31485426 0.60790324 0.33193445 -0.2508749 0.80808514 0.5336939 87 87 87
-0.31020397 0.6083412 0.33338976 -0.24365346 0.80295426 0.54399294 90 90 90
-0.30555478 0.60875845 0.3347888 -0.2358257 0.802967 0.54448354 90 90 90
-0.30090562 0.6091211 0.33604002 -0.20619927 0.79507256 0.5735331 93 93 93
-0.296257 0.60945535 0.33721447 -0.1834566 0.7824818 0.5871512 99 99 99
-0.29160702 0.6097095 0.3381729 -0.16827308 0.7848491 0.59560287 103 103 103
-0.28695777 0.60995746 0.3391137 -0.16057962 0.7773765 0.59843135 106 106 106
-0.28230873 0.61018395 0.3399973 -0.13756831 0.7797564 0.6073736 111 111 111
-0.27766037 0.61040807 0.3408742 -0.11455702 0.7821365 0.61631584 117 117 117
-0.2730064 0.61046696 0.3413043 -0.08398658 0.76955855 0.63042444 115 115 115
-0.26835167 0.6105046 0.3416772 -0.053416148 0.7569806 0.6445331 119 119 119
-0.26369497 0.61049175 0.3419137 -0.02993278 0.75701886 0.64600486 137 137 137
-0.25903767 0.6104691 0.3421235 0.0006376582 0.74444085 0.6601135 156 156 156
-0.25437456 0.61032534 0.34200668 0.007993421 0.74679536 0.6680746 155 155 155
-0.24971005 0.61016417 0.34184265 0.015686871 0.7393228 0.6709031 146 146 146
-0.24505076 0.6101186 0.34199095 -0.009143399 0.7215117 0.6913861 144 144 144
-0.24039194 0.61008525 0.34217262 -0.025539573 0.7088572 0.70255125 152 152 152
-0.23573239 0.6100421 0.34232712 -0.018452445 0.6962409 0.71518815 164 164 164
-0.2310748 0.6100366 0.34258366 0.0056371875 0.70142287 0.7068515 159 159 159
-0.22641572 0.6100066 0.3427739 0.013599277 0.708921 0.70500416 166 166 166
-0.22175027 0.609874 0.34268713 0.039642185 0.7370193 0.6649043 177 177 177
-0.21707793 0.6096389 0.34232426 0.025467928 0.76225185 0.6396305 171 171 171
-0.2124076 0.6094494 0.34208393 -0.052069183 0.7747532 0.6225784 156 156 156
-0.20775928 0.6096046 0.3427739 -0.14492409 0.777402 0.5994125 148 148 148
-0.20311488 0.6098089 0.34359694 -0.22286408 0.76744723 0.5893741 152 152 152
-0.19853967 0.6109903 0.34705734 -0.86008525 0.4373559 0.23263179 94 94 94
-0.19423233 0.6158321 0.36039925 -0.66143286 0.6819443 0.31673208 102 102 102
-0.18968363 0.61715627 0.36424398 -0.5838197 0.6671547 0.4580218 110 110 110
-0.18513922 0.61847043 0.36806154 -0.5878606 0.6138367 0.52388597 111 111 111
-0.18058234 0.61955976 0.37127256 -0.46085545 0.6196984 0.62888557 115 115 115
-0.17598885 0.620137 0.37310076 -0.31751952 0.60593134 0.7246011 128 128 128
-0.17138074 0.62050796 0.37437248 -0.28728676 0.60318047 0.7438423 134 134 134
-0.16677135 0.620847 0.37555742 -0.29625812 0.5680826 0.7625118 141 141 141
-0.16218129 0.62139773 0.3773141 -0.35497373 0.6138131 0.69506085 142 142 142
-0.15758759 0.62188315 0.37889385 -0.3859471 0.60393494 0.687966 141 141 141
-0.15301858 0.62262464 0.38116503 -0.3716385 0.5861878 0.71090186 136 136 136
-0.14843898 0.62321925 0.38303947 -0.31319156 0.5254865 0.7830286 147 147 147
-0.14383492 0.6235266 0.3841381 -0.23558925 0.54526836 0.7981996 157 157 157
-0.13924369 0.6239569 0.38556957 -0.21966508 0.56026465 0.7945049 162 162 162
-0.13462985 0.62413716 0.38632584 -0.14098445 0.5828484 0.79239696 159 159 159
-0.130008 0.62422943 0.38684464 -0.07587175 0.63580835 0.7552068 175 175 175
-0.12537992 0.62425685 0.38718796 -0.026076837 0.6789157 0.7119029 189 189 189
-0.12074442 0.62421083 0.38733387 0.039507866 0.72953385 0.6672422 197 197 197
-0.116081834 0.6239073 0.38678503 0.113123715 0.7628525 0.6202775 187 187 187
-0.11141378 0.623564 0.3861289 0.15529418 0.7886345 0.5736883 188 188 188
-0.10674533 0.62322927 0.38549566 0.18073077 0.81158906 0.54339695 180 180 180
-0.10207036 0.62284756 0.38473606 0.19159016 0.83732 0.49484548 175 175 175
-0.097349316 0.6220677 0.38290215 0.23341209 0.9075006 0.32727018 147 147 147
-0.09262028 0.62124443 0.38095188 0.19871008 0.96070117 0.12724501 109 109 109
-0.08791518 0.6206546 0.379632 0.18054235 0.97696054 -0.084858805 98 98 98
-0.08255437 0.6145203 0.36335945 -0.038896862 0.9841421 0.030775111 102 102 102
-0.07790479 0.61452127 0.36363268 -0.078565955 0.97664654 0.16236816 117 117 117
-0.07330161 0.6149037 0.36493492 -0.02823003 0.99261427 0.11113702 128 128 128
-0.06862649 0.6146922 0.36463547 0.0015890044 1.0019786 0.011273265 117 117 117
-0.06400168 0.6148884 0.36543512 -0.32498765 0.7666602 0.2126218 118 118 118
-0.05957368 0.6166239 0.37038517 -0.5458531 0.67876637 0.102702945 95 95 95
-0.05532989 0.6197324 0.3790369 -0.6164885 0.68390244 0.35189545 111 111 111
-0.05086857 0.62109303 0.3829751 -0.43366894 0.68288183 0.5696257 134 134 134
-0.046304226 0.6216409 0.3847227 -0.21199007 0.7015256 0.66836584 160 160 160
-0.04167667 0.62170553 0.38516712 -0.008805707 0.71168464 0.6862535 192 192 192
-0.03705859 0.6218381 0.38579464 -0.31942216 0.7069508 0.6269399 148 148 148
-0.03254646 0.62272954 0.3884678 -0.34526172 0.66154003 0.66424507 144 144 144
-0.027967572 0.62312317 0.38979816 -0.31442267 0.6639328 0.67367786 144 144 144
-0.02342245 0.62374306 0.3917389 -0.3840629 0.6516491 0.65665954 138 138 138
-0.018902361 0.6245196 0.39410257 -0.4673363 0.63745826 0.60644025 137 137 137
-0.01439783 0.6253822 0.39669704 -0.4673363 0.63745826 0.60644025 131 131 131
-0.009898335 0.6262572 0.39932442 -0.47516406 0.6374455 0.60594964 132 132 132
-0.0053934455 0.62707376 0.4017949 -0.40646785 0.65441275 0.63790894 148 148 148
-0.0008535087 0.6276398 0.40358973 -0.3064606 0.671431 0.67183053 155 155 155
0.003724575 0.62794495 0.4046812 -0.18236364 0.6936312 0.6974155 169 169 169
0.008314043 0.62816954 0.4055562 -0.08194961 0.67602444 0.72574776 204 204 204
0.012946397 0.62811756 0.40568542 0.01259 0.6813212 0.7218263 213 213 213
0.017600656 0.62793016 0.40544987 0.1232571 0.6843018 0.7114155 214 214 214
0.022276402 0.6276145 0.4048686 0.24330232 0.68775535 0.6767459 221 221 221
0.02705136 0.6267004 0.40267563 0.49972743 0.6179526 0.59954715 192 192 192
0.031901926 0.6253514 0.39931107 0.629358 0.5474855 0.53924847 161 161 161
0.03687647 0.62329364 0.39403725 0.8024444 0.43120867 0.4137115 138 138 138
0.042185307 0.6193099 0.3835764 0.92511886 0.3012523 0.21516809 124 124 124
0.047846437 0.61336017 0.36782026 0.6628947 0.5283425 0.5061962 167 167 167
0.05274439 0.61194515 0.36427975 0.6709911 0.543326 0.502011 172 172 172
0.05773115 0.6100545 0.35945845 0.20248261 0.62266487 0.70280474 209 209 209
0.062241614 0.6108935 0.36198997 -0.68853563 0.50231045 0.50307834 129 129 129
0.06641433 0.61360097 0.3695531 -0.79239124 0.44923306 0.40610754 107 107 107
0.07087293 0.6146717 0.37270784 -0.47590467 0.6248165 0.61809593 144 144 144
0.07538819 0.6154103 0.37496758 -0.55527157 0.6564583 0.5043503 120 120 120
0.07979515 0.61671996 0.3787651 -0.5551373 0.6639437 0.50201243 111 111 111
0.08427501 0.61761236 0.38143873 -0.40438023 0.6848144 0.60380787 132 132 132
0.088796616 0.6182654 0.38346815 -0.31381634 0.66907644 0.6638695 143 143 143
0.09336975 0.6186352 0.38473463 -0.23782961 0.65611494 0.70567095 154 154 154
0.09798688 0.61876917 0.385365 -0.049069703 0.52780205 0.83192825 177 177 177
0.102659345 0.61861587 0.3852234 0.18915872 0.2811801 0.92428744 173 173 173
0.10747814 0.61772037 0.38308287 0.57881373 -0.2600791 0.7397915 139 139 139
0.11287686 0.6139159 0.37311125 0.2381597 -0.028540265 0.77743876 159 159 159
0.11748424 0.6141393 0.37398386 -0.21616527 0.6407223 0.736568 183 183 183
0.12213829 0.6141274 0.37422323 0.28062597 0.61530715 0.71004844 197 197 197
0.12702975 0.61295176 0.3713293 0.567894 0.49081606 0.6437069 194 194 194
0.13201383 0.61134815 0.3672843 0.60149604 0.5039563 0.60877347 176 176 176
0.1367158 0.61113214 0.36697435 -0.4820402 0.51858705 0.5933669 162 162 162
0.14033386 0.6160896 0.38058853 -0.83862424 0.4392757 0.26632342 88 88 88
0.14468214 0.6175065 0.38467216 -0.30607224 0.7855397 0.5372736 106 106 106
0.14930114 0.61763024 0.38527584 0.1988116 0.83218914 0.5051445 130 130 130
0.15418383 0.6165273 0.38257885 0.65875554 0.6831274 0.31743085 112 112 112
0.15935901 0.61409855 0.3763137 0.72461647 0.6345541 0.2709432 131 131 131
0.16470376 0.61093855 0.36808205 0.71618235 0.6293977 0.28026104 147 147 147
0.1699197 0.6084161 0.3615656 0.8014205 0.4952614 0.3029905 145 145 145
0.17535707 0.60494447 0.35249615 0.63523626 0.4675008 0.5729266 168 168 168
0.18019024 0.6042173 0.35081196 0.106995225 0.6791327 0.7202428 180 180 180
0.18488517 0.6041119 0.3508005 0.12413205 0.7044162 0.6969313 164 164 164
0.18968347 0.6035569 0.34957933 0.49582472 0.51503885 0.66449785 145 145 145
0.19477782 0.6017275 0.34493065 0.4310947 -0.09604979 0.83549386 135 135 135
0.19956341 0.6012559 0.34393406 0.16166557 -0.36549723 0.8782297 133 133 133
0.20443198 0.6004381 0.34200668 0.098087974 -0.18967247 0.88497275 156 156 156
0.20909289 0.60051227 0.34247875 -0.11189967 -0.400569 0.85547 135 135 135
0.21371457 0.60074973 0.34339046 -0.059798025 -0.709369 0.6591225 113 113 113
0.21777192 0.60333204 0.35060835 -0.37635738 -0.8030734 0.4461665 74 74 74
0.22196242 0.6053238 0.3562374 -0.2758058 -0.73360384 0.59543073 114 114 114
0.22656819 0.6055834 0.35720778 0.045135986 -0.65348965 0.7388145 139 139 139
0.23155388 0.604295 0.35401487 0.35756376 -0.5191627 0.765854 160 160 160
0.23662212 0.60269356 0.34998035 0.40021002 -0.5528035 0.71321875 169 169 169
0.24085769 0.6044495 0.35497475 -0.6437991 -0.42400032 0.56570816 136 136 136
0.24513283 0.60602164 0.3594737 -0.6698002 0.0593435 0.71722585 176 176 176
0.24947771 0.6072953 0.3631711 -0.51528996 0.40396717 0.75071084 197 197 197
0.25398186 0.60792685 0.36514044 -0.57371795 0.17926274 0.6857062 181 181 181
0.2578781 0.61090994 0.37343264 -0.69834065 -0.044122335 0.67374617 128 128 128
0.26230142 0.61181736 0.37614346 -0.4123631 0.23340344 0.86832035 155 155 155
0.26682535 0.61232615 0.3777833 -0.26545826 0.27529615 0.90564215 160 160 160
0.2714298 0.61252236 0.378582 -0.015579727 0.32764214 0.9297247 177 177 177
0.27618024 0.6121652 0.3778925 0.19070525 0.33872145 0.8981136 156 156 156
0.28098205 0.61162066 0.37670088 0.20001048 0.4210734 0.8728871 157 157 157
0.285737 0.61125827 0.37599802 0.20169133 0.48610008 0.8443754 176 176 176
0.29049513 0.6108897 0.375278 0.2105284 0.51371264 0.8280438 189 189 189
0.29532596 0.61025953 0.37385654 0.26651698 0.6728229 0.6828935 185 185 185
0.30015174 0.6096566 0.37250757 0.2262998 0.66995716 0.6977195 200 200 200
0.30499604 0.6089957 0.3710022 0.25747654 0.66252285 0.70201975 182 182 182
0.30982605 0.60839486 0.36965942 0.2666513 0.6803083 0.6805556 182 182 182
0.31463107 0.6078913 0.36857796 0.26151744 0.7158409 0.63615555 177 177 177
0.31944922 0.60734844 0.3673911 0.32885587 0.7496068 0.5639508 186 186 186
0.32440266 0.6063371 0.3649459 0.46212053 0.7670827 0.44337726 162 162 162
0.3297983 0.60379434 0.3583851 0.6898453 0.71255255 0.0713748 139 139 139
0.33740565 0.59360933 0.33129215 -0.2736682 0.6967401 0.6495002 197 197 197
0.34199587 0.59396124 0.33251047 -0.1743325 0.6763314 0.6951114 204 204 204
0.34664598 0.5941036 0.3331666 0.22090116 0.6334379 0.6594197 215 215 215
0.35177603 0.59261084 0.32942963 0.6375234 0.53767115 0.53460646 171 171 171
0.35668972 0.5918691 0.32771063 -0.4435659 0.5037337 0.73220366 147 147 147
0.36085042 0.5936661 0.33281136 -0.8423128 0.28447813 0.4545982 91 91 91
0.3649057 0.5957923 0.33879662 -0.8062094 0.31590483 0.5046687 97 97 97
0.3690929 0.5974543 0.34353304 -0.716931 0.3717586 0.58337945 108 108 108
0.37340114 0.59869623 0.34714222 -0.56604344 0.45719582 0.6814126 133 133 133
0.377843 0.59948516 0.34953403 -0.4205546 0.50611377 0.7411459 155 155 155
0.3823509 0.6000495 0.35132265 -0.3057015 0.53532636 0.78865176 168 168 168
0.3869522 0.60030484 0.3522811 -0.20475018 0.5476611 0.8076324 171 171 171
0.3915741 0.6004908 0.3530531 -0.07984357 0.55769247 0.8206143 178 178 178
0.3962758 0.60042 0.3531356 0.07036537 0.58319306 0.8056426 194 194 194
0.40114143 0.5998292 0.3518219 0.38265944 0.5733627 0.7131746 187 187 187
0.40621725 0.5985825 0.34874678 0.58577144 0.5287286 0.60824907 162 162 162
0.41143164 0.5969162 0.34454536 0.6781474 0.5059119 0.51419115 144 144 144
0.41681662 0.5947375 0.33896923 0.7202525 0.49941066 0.46948314 143 143 143
0.42233816 0.5921619 0.3323269 0.7208588 0.50455433 0.45967475 146 146 146
0.42762724 0.59033275 0.32768965 0.6453512 0.5376839 0.53509706 158 158 158
0.43288437 0.58862305 0.3233738 0.55526626 0.57358986 0.5922593 175 175 175
0.43798652 0.5874057 0.32037973 0.45795992 0.6146267 0.63912255 189 189 189
0.44298926 0.58650327 0.31823158 0.41727075 0.6141027 0.66141903 180 180 180
0.44801244 0.58554983 0.31594658 0.42348292 0.5813721 0.68854016 180 180 180
0.45302764 0.58463144 0.313756 0.43886983 0.5664268 0.6941972 180 180 180
0.45810553 0.5835371 0.31109238 0.47247186 0.57956713 0.6592638 170 170 170
0.46322975 0.58231807 0.30809546 0.48211855 0.5950108 0.63032913 169 169 169
0.46831062 0.5812404 0.30547762 0.4837342 0.6277542 0.60369855 176 176 176
0.47348836 0.5798912 0.30213213 0.55944145 0.6343933 0.52405715 171 171 171
0.4787992 0.57817006 0.29778814 0.6175399 0.61809045 0.47519776 162 162 162
0.48415443 0.5763395 0.2931509 0.5831282 0.617119 0.5227342 158 158 158
0.48938277 0.5748944 0.2895484 0.50715226 0.59550923 0.60705143 163 163 163
0.49449912 0.5737858 0.2868495 0.4233486 0.5738867 0.6908781 170 170 170
0.49952844 0.572937 0.28484726 0.36505058 0.5504208 0.74395657 167 167 167
0.5045477 0.5721259 0.28294706 0.38030317 0.5279902 0.75195146 167 167 167
0.5095775 0.5712943 0.28099155 0.40338355 0.5055724 0.76043695 167 167 167
0.5146364 0.57038975 0.27884102 0.4431978 0.48598197 0.7526247 166 166 166
0.5197489 0.5693462 0.27631712 0.47579053 0.47152245 0.73451346 164 164 164
0.524886 0.56824493 0.2736392 0.5085176 0.4645483 0.7140643 172 172 172
0.5302292 0.5665877 0.2694702 0.6926593 0.47085223 0.53433233 157 157 157
0.53595614 0.5638957 0.26252508 0.7512297 0.45220768 0.47800246 164 164 164
0.5415672 0.56154776 0.25650406 0.62166446 0.5549581 0.53642 182 182 182
0.54687023 0.56006026 0.25279188 0.48846516 0.5697655 0.6551123 185 185 185
0.55195165 0.55918646 0.25072575 0.33873904 0.5073518 0.78873223 193 193 193
0.55695236 0.55853844 0.24926472 0.24015862 0.448737 0.8585178 194 194 194
0.5618669 0.5581279 0.24844122 0.19130777 0.40094626 0.88688076 190 190 190
0.56677413 0.55774045 0.24767923 0.15236849 0.44065106 0.8802088 177 177 177
0.57163215 0.55748725 0.24727774 0.15236849 0.44065106 0.8802088 168 168 168
